#!ascii version of lh.inflated (vertices are surface normals)
10242 20480
-0.956967  -0.226550  0.181353  0
-0.970678  -0.214362  0.108780  0
-0.960558  -0.265991  0.081098  0
-0.980199  -0.192431  0.046685  0
-0.997881  -0.012949  -0.063761  0
-0.992996  -0.113480  -0.032893  0
-0.997147  -0.059111  -0.046937  0
-0.992731  -0.114949  -0.035664  0
-0.999110  0.000183  -0.042180  0
-0.916534  -0.131244  -0.377811  0
-0.943646  -0.101710  -0.314939  0
-0.899702  -0.107631  -0.423028  0
-0.851264  0.012076  -0.524598  0
-0.887774  -0.021438  -0.459780  0
-0.891301  0.038281  -0.451793  0
-0.924883  0.051670  -0.376724  0
-0.898790  0.104716  -0.425689  0
-0.796289  0.258395  -0.546951  0
-0.792129  0.177687  -0.583918  0
-0.822934  0.297401  -0.484079  0
-0.884183  0.406083  -0.230903  0
-0.875431  0.332513  -0.350793  0
-0.902501  0.321031  -0.287108  0
-0.919238  0.239547  -0.312439  0
-0.928179  0.289981  -0.233226  0
-0.953753  0.237939  -0.183685  0
-0.937118  0.316219  -0.147702  0
-0.936198  0.346907  0.056469  0
-0.957294  0.289017  -0.007600  0
-0.969993  0.240066  0.038499  0
-0.992615  0.120012  0.017687  0
-0.982374  0.174912  0.065936  0
-0.991748  0.101462  0.078361  0
-0.968172  0.219949  0.119437  0
-0.882451  0.370764  0.289506  0
-0.930629  0.280653  0.234869  0
-0.910163  0.299497  0.286189  0
-0.937021  0.226390  0.265967  0
-0.891988  0.309934  0.329086  0
-0.701471  0.553365  0.449138  0
-0.736232  0.530662  0.419953  0
-0.715601  0.513205  0.473852  0
-0.770197  0.404512  0.493119  0
-0.780156  0.414775  0.468314  0
-0.821760  0.359449  0.442162  0
-0.870989  0.304455  0.385597  0
-0.862415  0.302768  0.405675  0
-0.902828  0.241344  0.355886  0
-0.858022  0.298905  0.417678  0
-0.813386  0.337286  0.473965  0
-0.858663  0.289321  0.423074  0
-0.859432  0.291382  0.420087  0
-0.903756  0.238427  0.355496  0
-0.772102  -0.630102  0.082646  0
-0.791802  -0.609744  0.035525  0
-0.801908  -0.593169  0.071380  0
-0.853083  -0.512339  0.098786  0
-0.844783  -0.530908  0.066919  0
-0.859902  -0.505430  0.071471  0
-0.864179  -0.501738  0.038141  0
-0.871475  -0.484245  0.077708  0
-0.883812  -0.439597  0.160098  0
-0.876538  -0.455839  0.154567  0
-0.888527  -0.430817  0.157853  0
-0.899304  -0.408651  0.155744  0
-0.893370  -0.425075  0.145608  0
-0.894755  -0.425656  0.135019  0
-0.889220  -0.445572  0.103696  0
-0.895395  -0.429480  0.117536  0
-0.896316  -0.434203  0.089921  0
-0.900589  -0.415640  0.127216  0
-0.913727  -0.369931  0.168089  0
-0.911886  -0.383779  0.145522  0
-0.918040  -0.367289  0.149334  0
-0.922989  -0.363628  0.125962  0
-0.923683  -0.352378  0.150466  0
-0.876028  -0.468690  0.113603  0
-0.886866  -0.446192  0.119923  0
-0.885525  -0.454028  0.098506  0
-0.890801  -0.446480  0.084434  0
-0.897033  -0.430671  0.099273  0
-0.901091  -0.419548  0.109609  0
-0.907530  -0.398165  0.133615  0
-0.903441  -0.410636  0.123176  0
-0.870702  -0.491504  0.017383  0
-0.871881  -0.488501  0.034498  0
-0.880482  -0.472017  0.044175  0
-0.906893  -0.404609  0.117627  0
-0.900123  -0.422250  0.107161  0
-0.906960  -0.398792  0.135606  0
-0.908220  -0.390550  0.150357  0
-0.911308  -0.379506  0.159663  0
-0.913452  -0.366660  0.176541  0
-0.915468  -0.366491  0.166139  0
-0.932652  -0.331555  0.142237  0
-0.926657  -0.340950  0.158300  0
-0.934197  -0.326173  0.144522  0
-0.935461  -0.325721  0.137178  0
-0.942263  -0.310288  0.125947  0
-0.950926  -0.291933  0.102541  0
-0.949725  -0.292453  0.111775  0
-0.964890  -0.251596  0.075413  0
-0.965834  -0.246328  0.080545  0
-0.973404  -0.219331  0.066166  0
-0.980474  -0.188039  0.057555  0
-0.980203  -0.190572  0.053700  0
-0.967085  -0.252341  0.032734  0
-0.964376  -0.261561  0.039549  0
-0.975883  -0.214473  0.040664  0
-0.993385  -0.097619  0.060466  0
-0.988292  -0.144514  0.048945  0
-0.992587  -0.111099  0.049282  0
-0.992013  -0.118345  0.043633  0
-0.995477  -0.082058  0.047870  0
-0.997296  -0.057411  0.045884  0
-0.997146  -0.048207  0.058107  0
-0.983200  0.068604  0.169152  0
-0.992860  0.029002  0.115705  0
-0.983631  0.073054  0.164722  0
-0.984107  0.077487  0.159780  0
-0.966594  0.121872  0.225484  0
-0.492990  -0.641763  0.587453  0
-0.458884  -0.680690  0.571041  0
-0.523464  -0.651440  0.549192  0
-0.587641  -0.640215  0.494774  0
-0.552047  -0.664586  0.503557  0
-0.557500  -0.665574  0.496191  0
-0.526115  -0.686466  0.501964  0
-0.558051  -0.664698  0.496745  0
-0.638768  -0.570509  0.516232  0
-0.636574  -0.585675  0.501755  0
-0.611264  -0.599315  0.516892  0
-0.535416  -0.646728  0.543207  0
-0.565429  -0.639301  0.521138  0
-0.546034  -0.652348  0.525632  0
-0.542368  -0.663305  0.515619  0
-0.525238  -0.664942  0.531015  0
-0.501452  -0.679467  0.535604  0
-0.499483  -0.671180  0.547754  0
-0.406909  -0.688667  0.600136  0
-0.435216  -0.687857  0.580896  0
-0.401623  -0.695581  0.595706  0
-0.397148  -0.701674  0.591547  0
-0.369730  -0.703456  0.607001  0
-0.494498  -0.389804  0.776869  0
-0.516835  -0.423266  0.744129  0
-0.451120  -0.439899  0.776518  0
-0.321227  -0.568143  0.757645  0
-0.367334  -0.543109  0.755049  0
-0.329054  -0.588389  0.738595  0
-0.349211  -0.606915  0.713937  0
-0.299504  -0.627337  0.718851  0
-0.380247  -0.658325  0.649631  0
-0.331014  -0.642823  0.690802  0
-0.327391  -0.672512  0.663734  0
-0.266487  -0.708137  0.653856  0
-0.262347  -0.690264  0.674322  0
-0.258813  -0.692880  0.673003  0
-0.272840  -0.678759  0.681796  0
-0.272386  -0.694742  0.665686  0
-0.297558  -0.694629  0.654942  0
-0.276217  -0.706748  0.651315  0
-0.307898  -0.733954  0.605401  0
-0.298835  -0.722487  0.623466  0
-0.315251  -0.728859  0.607767  0
-0.330775  -0.724225  0.605051  0
-0.330190  -0.736529  0.590339  0
-0.341012  -0.746619  0.571201  0
-0.343278  -0.749482  0.566072  0
-0.435611  -0.764851  0.474601  0
-0.403875  -0.769427  0.494840  0
-0.445992  -0.773774  0.449850  0
-0.450841  -0.784934  0.424997  0
-0.493486  -0.770944  0.402637  0
-0.638211  -0.685725  0.349955  0
-0.581594  -0.717148  0.383989  0
-0.638027  -0.693936  0.333727  0
-0.675598  -0.688183  0.264521  0
-0.635947  -0.710065  0.302289  0
-0.627365  -0.723418  0.288236  0
-0.580501  -0.752364  0.311396  0
-0.619463  -0.736830  0.270825  0
-0.610587  -0.751416  0.250117  0
-0.656889  -0.717288  0.232368  0
-0.759975  -0.633747  0.144231  0
-0.722165  -0.673833  0.156292  0
-0.747694  -0.652951  0.120867  0
-0.735789  -0.670926  0.092048  0
0.969037  -0.083644  -0.232318  0
0.976888  -0.031006  -0.211492  0
0.974995  -0.015996  -0.221649  0
0.975720  0.111844  -0.188312  0
0.976626  0.106064  -0.186956  0
0.974243  0.152875  -0.165771  0
0.973052  0.184097  -0.138849  0
0.972448  0.182957  -0.144470  0
0.989447  0.072964  -0.125187  0
0.984478  0.090996  -0.150078  0
0.986820  0.106548  -0.121798  0
0.986765  0.145774  -0.071028  0
0.982066  0.159165  -0.101061  0
0.980254  0.175741  -0.090649  0
0.974803  0.197960  -0.102817  0
0.979429  0.183385  -0.084191  0
0.980271  0.179057  -0.083715  0
0.986483  0.148584  -0.069091  0
0.999022  -0.044169  -0.002026  0
0.998912  0.021122  -0.041574  0
0.997119  -0.070945  -0.026855  0
0.991676  -0.106530  -0.072323  0
0.983308  -0.181143  -0.017112  0
0.941582  -0.292777  0.166447  0
0.968567  -0.221541  0.113129  0
0.937899  -0.296750  0.179679  0
0.852512  -0.431304  0.295298  0
0.925877  -0.312697  0.212068  0
0.917685  -0.322185  0.232488  0
0.959184  -0.223820  0.172832  0
0.908747  -0.337187  0.245934  0
0.237987  -0.812854  0.531630  0
0.416247  -0.759221  0.500323  0
0.393534  -0.773350  0.497052  0
0.658037  -0.656166  0.369368  0
0.682275  -0.621876  0.384411  0
0.793667  -0.521206  0.313747  0
0.891093  -0.379929  0.248207  0
0.877914  -0.414122  0.240354  0
0.936073  -0.308678  0.168777  0
0.867124  -0.447963  0.217774  0
0.707373  -0.686554  0.168127  0
0.831756  -0.535864  0.145022  0
0.805216  -0.587246  0.082272  0
0.880352  -0.474306  -0.003625  0
0.775589  -0.631236  -0.001865  0
0.728118  -0.677110  -0.106608  0
0.635270  -0.772281  -0.003598  0
0.174451  -0.978602  0.109106  0
0.297922  -0.954590  0.000997  0
0.132318  -0.991194  0.005225  0
0.082513  -0.991669  -0.098917  0
-0.016514  -0.999602  0.022877  0
-0.191221  -0.903772  0.382923  0
-0.123069  -0.933888  0.335718  0
-0.214665  -0.919496  0.329310  0
-0.345916  -0.915675  0.204651  0
-0.272348  -0.939440  0.208039  0
-0.304493  -0.943073  0.133780  0
-0.247398  -0.967946  0.043300  0
-0.342285  -0.937837  0.057468  0
-0.380324  -0.924416  -0.028442  0
-0.419969  -0.905097  0.066520  0
-0.565828  -0.812973  0.137527  0
-0.548583  -0.832608  0.076292  0
-0.600841  -0.794627  0.086938  0
-0.631006  -0.774990  0.034958  0
-0.649790  -0.754347  0.093452  0
0.998274  -0.057936  -0.009600  0
0.997955  -0.059338  0.023747  0
0.998031  -0.061990  0.009607  0
0.995681  -0.060113  0.070758  0
0.994353  -0.062492  0.085776  0
0.989354  -0.060947  0.132156  0
0.978704  -0.061390  0.195882  0
0.981674  -0.059192  0.181142  0
0.999225  -0.032524  0.022153  0
0.998609  -0.043329  0.030039  0
0.996920  -0.033053  0.071120  0
0.972343  -0.035407  0.230856  0
0.980983  -0.041763  0.189546  0
0.966957  -0.047491  0.250478  0
0.961422  -0.055541  0.269410  0
0.950455  -0.053818  0.306167  0
0.936420  -0.058407  0.345985  0
0.942672  -0.052139  0.329622  0
0.946619  -0.053906  0.317816  0
0.936232  -0.060263  0.346176  0
0.937872  -0.070057  0.339836  0
0.931490  -0.085001  0.353697  0
0.942900  -0.085154  0.322005  0
0.998045  0.017657  0.059953  0
0.998746  0.025004  0.043366  0
0.997976  0.030355  0.055880  0
0.997090  0.032828  0.068802  0
0.997034  0.039498  0.066055  0
0.996155  0.035924  0.079904  0
0.994897  0.034820  0.094698  0
0.994758  0.026964  0.098633  0
0.998848  -0.026945  0.039702  0
0.998687  -0.010685  0.050100  0
0.998485  -0.019158  0.051579  0
0.992577  -0.039314  0.115084  0
0.995155  -0.017896  0.096680  0
0.991401  -0.022454  0.128920  0
0.989762  -0.005914  0.142607  0
0.985823  -0.028742  0.165307  0
0.978063  -0.033962  0.205522  0
0.980600  -0.052239  0.188930  0
0.974338  -0.120885  0.189874  0
0.969772  -0.101742  0.221789  0
0.965853  -0.125475  0.226680  0
0.956174  -0.126977  0.263834  0
0.963555  -0.147699  0.223041  0
0.962966  -0.166739  0.211884  0
0.969655  -0.168747  0.176903  0
0.978349  -0.203811  0.035966  0
0.975372  -0.209936  0.067651  0
0.974016  -0.226113  0.012863  0
0.969428  -0.245148  -0.010524  0
0.970555  -0.237673  -0.039172  0
0.987001  -0.138239  -0.081963  0
0.985730  -0.158099  -0.057807  0
0.982436  -0.158169  -0.099007  0
0.968804  -0.185324  -0.164543  0
0.971094  -0.198559  -0.132480  0
0.964969  -0.217975  -0.146022  0
0.961892  -0.242993  -0.125369  0
0.958543  -0.235369  -0.160611  0
0.952138  -0.251840  -0.173233  0
0.956496  -0.221944  -0.189359  0
0.966533  -0.112587  -0.230515  0
0.959249  -0.169405  -0.226148  0
0.963486  -0.129825  -0.234178  0
0.961224  -0.148414  -0.232425  0
0.988832  0.040459  -0.143439  0
0.984396  -0.006712  -0.175837  0
0.989942  0.012389  -0.140930  0
0.992797  -0.014611  -0.118911  0
0.987551  -0.038202  -0.152591  0
0.984639  -0.061645  -0.163357  0
0.970821  -0.110154  -0.213007  0
0.980773  -0.083759  -0.176263  0
0.998382  0.056470  0.006739  0
0.998705  0.042901  -0.027352  0
0.999466  0.018268  -0.027089  0
0.989207  -0.089790  -0.115787  0
0.991732  -0.067148  -0.109352  0
0.981563  -0.109711  -0.156518  0
0.971532  -0.130370  -0.197811  0
0.967545  -0.145742  -0.206435  0
0.949895  -0.178437  -0.256631  0
0.962534  -0.159809  -0.219066  0
0.965063  -0.165917  -0.202792  0
0.952659  -0.185266  -0.241077  0
0.947153  -0.193786  -0.255634  0
0.925202  -0.216840  -0.311419  0
0.941702  -0.197355  -0.272487  0
0.954810  0.092204  0.282553  0
0.962334  0.095838  0.254417  0
0.961157  0.076985  0.265048  0
0.976857  0.015588  0.213325  0
0.977441  0.034612  0.208351  0
0.985137  0.009208  0.171525  0
0.991429  0.001713  0.130634  0
0.991287  -0.016664  0.130664  0
0.968939  -0.066098  0.238302  0
0.972109  -0.047528  0.229662  0
0.979947  -0.068837  0.186991  0
0.994157  -0.104831  0.025720  0
0.993708  -0.079047  0.079347  0
0.995788  -0.086914  0.029206  0
0.997051  -0.068781  0.034031  0
0.994987  -0.098269  -0.018539  0
0.991447  -0.112462  -0.066221  0
0.989033  -0.126346  -0.076490  0
0.963070  -0.183501  -0.197037  0
0.966422  -0.172879  -0.190110  0
0.949991  -0.191289  -0.246831  0
0.934573  -0.200438  -0.293936  0
0.930770  -0.204136  -0.303308  0
0.910827  -0.212881  -0.353662  0
0.929292  -0.210428  -0.303539  0
0.941395  -0.232987  -0.243911  0
0.927970  -0.227911  -0.294838  0
0.927536  -0.239842  -0.286624  0
0.915161  -0.242528  -0.321964  0
0.928154  -0.253507  -0.272514  0
0.969142  -0.241684  -0.048505  0
0.965305  -0.242753  -0.096215  0
0.960947  -0.259527  -0.096057  0
0.939781  -0.293666  -0.174849  0
0.942434  -0.283252  -0.177729  0
0.934203  -0.288863  -0.209339  0
0.927704  -0.279826  -0.247111  0
0.928235  -0.290737  -0.232061  0
0.924921  -0.286470  -0.249911  0
0.929168  -0.296257  -0.221084  0
0.937010  -0.284224  -0.203048  0
0.934397  -0.287276  -0.210652  0
0.939095  -0.270940  -0.211406  0
0.943826  -0.252279  -0.213421  0
0.945396  -0.242895  -0.217322  0
-0.859542  0.082630  -0.504341  0
-0.877746  0.120830  -0.463640  0
-0.832197  0.132885  -0.538322  0
-0.667753  0.251047  -0.700772  0
-0.745528  0.246170  -0.619345  0
-0.683900  0.308358  -0.661208  0
-0.696407  0.370888  -0.614378  0
-0.604953  0.373229  -0.703372  0
-0.319754  0.197712  -0.926643  0
-0.404759  0.218936  -0.887827  0
-0.315388  0.250493  -0.915305  0
-0.138085  0.420801  -0.896582  0
-0.276254  0.388231  -0.879182  0
-0.257959  0.465890  -0.846406  0
-0.377332  0.499537  -0.779797  0
-0.229159  0.548605  -0.804064  0
-0.200537  0.633228  -0.747534  0
-0.058847  0.581524  -0.811398  0
0.391834  0.464866  -0.793956  0
0.277479  0.564764  -0.777205  0
0.426902  0.516316  -0.742410  0
0.429298  0.571926  -0.699002  0
0.542048  0.454817  -0.706630  0
0.172556  -0.010782  -0.984941  0
0.119308  0.011423  -0.992792  0
0.171418  -0.006950  -0.985174  0
0.297768  -0.012257  -0.954560  0
0.224782  0.013503  -0.974316  0
0.279327  0.026828  -0.959821  0
0.254353  0.072075  -0.964422  0
0.345627  0.043917  -0.937344  0
0.536134  -0.118443  -0.835782  0
0.486075  -0.091485  -0.869115  0
0.561838  -0.090405  -0.822293  0
0.675114  0.001256  -0.737713  0
0.596589  -0.010906  -0.802473  0
0.604444  0.040765  -0.795604  0
0.519091  0.082630  -0.850716  0
0.599677  0.105888  -0.793206  0
0.581895  0.179733  -0.793155  0
0.667787  0.128035  -0.733258  0
0.783888  0.121019  -0.608994  0
0.741569  0.182389  -0.645609  0
0.750677  0.210607  -0.626201  0
0.696225  0.312950  -0.646014  0
0.742148  0.236176  -0.627245  0
0.712445  0.255936  -0.653391  0
0.769076  0.161173  -0.618503  0
0.815945  -0.026180  -0.577536  0
0.785329  0.030684  -0.618317  0
0.781159  -0.025116  -0.623827  0
0.725149  -0.035949  -0.687653  0
0.773446  -0.077132  -0.629152  0
0.847746  -0.167121  -0.503385  0
0.850937  -0.142006  -0.505709  0
0.853191  -0.160873  -0.496170  0
0.808887  -0.193464  -0.555224  0
0.820568  -0.169106  -0.545959  0
0.779689  -0.184281  -0.598436  0
0.739895  -0.169884  -0.650918  0
0.722902  -0.208069  -0.658878  0
0.650015  -0.235233  -0.722596  0
0.703307  -0.239885  -0.669189  0
0.713939  -0.269229  -0.646379  0
0.669845  -0.283329  -0.686318  0
0.653416  -0.296361  -0.696575  0
0.587090  -0.320908  -0.743198  0
0.632310  -0.305814  -0.711802  0
-0.910189  0.294514  0.291235  0
-0.951940  0.232403  0.199498  0
-0.927291  0.284917  0.242805  0
-0.931171  0.314731  0.184026  0
-0.955335  0.254525  0.150176  0
-0.962727  0.246629  0.111047  0
-0.981593  0.183272  0.053733  0
-0.969520  0.235513  0.067564  0
-0.782037  0.543691  0.304662  0
-0.827710  0.488711  0.275784  0
-0.844954  0.489286  0.215993  0
-0.936785  0.349372  -0.019311  0
-0.932886  0.357191  0.046249  0
-0.958220  0.284810  -0.026407  0
-0.974064  0.224130  -0.031078  0
-0.972605  0.213706  -0.091482  0
-0.977025  0.154317  -0.146997  0
-0.965961  0.204251  -0.158748  0
-0.914537  0.230278  -0.332558  0
-0.932162  0.175389  -0.316720  0
-0.902611  0.154998  -0.401584  0
-0.882577  0.083016  -0.462781  0
-0.861611  0.124336  -0.492104  0
-0.644503  0.694809  0.319149  0
-0.626105  0.701392  0.340648  0
-0.623947  0.726173  0.288727  0
-0.628338  0.771003  0.103659  0
-0.633747  0.752278  0.180115  0
-0.660192  0.744430  0.099855  0
-0.701502  0.707562  0.085148  0
-0.699882  0.714256  -0.002142  0
-0.479386  0.828243  -0.290175  0
-0.545505  0.818790  -0.178907  0
-0.552503  0.775907  -0.304482  0
-0.690693  0.555259  -0.463282  0
-0.684199  0.651359  -0.328029  0
-0.736826  0.580262  -0.346961  0
-0.770422  0.590581  -0.240132  0
-0.788165  0.503464  -0.354006  0
-0.829289  0.427722  -0.359631  0
-0.787313  0.405089  -0.464802  0
-0.673797  0.143677  -0.724813  0
-0.746895  0.188060  -0.637795  0
-0.706596  0.091351  -0.701696  0
-0.735960  0.047081  -0.675386  0
-0.655689  0.006301  -0.755005  0
-0.601484  -0.070062  -0.795807  0
-0.565095  -0.040379  -0.824037  0
-0.327542  -0.110853  -0.938311  0
-0.370961  -0.136296  -0.918592  0
-0.274939  -0.180615  -0.944345  0
-0.219757  -0.238469  -0.945959  0
-0.180678  -0.221299  -0.958323  0
-0.030857  0.088965  -0.995557  0
-0.133669  0.026739  -0.990665  0
-0.011588  -0.029397  -0.999501  0
0.116501  -0.233904  -0.965255  0
0.021937  -0.203006  -0.978932  0
0.045497  -0.263950  -0.963463  0
-0.011595  -0.282976  -0.959057  0
0.071831  -0.308156  -0.948620  0
0.102021  -0.340470  -0.934704  0
0.151718  -0.324913  -0.933495  0
0.385141  -0.322135  -0.864810  0
0.306866  -0.344983  -0.887029  0
0.382349  -0.345067  -0.857168  0
0.381011  -0.362029  -0.850744  0
0.455048  -0.342343  -0.822030  0
-0.809728  -0.581362  -0.079742  0
-0.787155  -0.599475  -0.144974  0
-0.808616  -0.571528  -0.139627  0
-0.805494  -0.537080  -0.250448  0
-0.788724  -0.555481  -0.263354  0
-0.772417  -0.544706  -0.326601  0
-0.730919  -0.550524  -0.403336  0
-0.749414  -0.531654  -0.394618  0
-0.851352  -0.485962  -0.197587  0
-0.840785  -0.499121  -0.209664  0
-0.824491  -0.492921  -0.277928  0
-0.713028  -0.472651  -0.517872  0
-0.750458  -0.490901  -0.442527  0
-0.700935  -0.483739  -0.524105  0
-0.685660  -0.494754  -0.533937  0
-0.641025  -0.469751  -0.606977  0
-0.570481  -0.450697  -0.686603  0
-0.589632  -0.441263  -0.676477  0
-0.496995  -0.395902  -0.772177  0
-0.477127  -0.392471  -0.786331  0
-0.418758  -0.373233  -0.827852  0
-0.329926  -0.346707  -0.878034  0
-0.359883  -0.357353  -0.861849  0
-0.952506  -0.294321  -0.078146  0
-0.940522  -0.327073  -0.091883  0
-0.936609  -0.317268  -0.148676  0
-0.850862  -0.359123  -0.383490  0
-0.871954  -0.367106  -0.323929  0
-0.823048  -0.387818  -0.414956  0
-0.798158  -0.411842  -0.439694  0
-0.766222  -0.402223  -0.501120  0
-0.739778  -0.316678  -0.593670  0
-0.769466  -0.328961  -0.547455  0
-0.692091  -0.352387  -0.629947  0
-0.546575  -0.393709  -0.739087  0
-0.623740  -0.392406  -0.675993  0
-0.591680  -0.402940  -0.698251  0
-0.636301  -0.411103  -0.652775  0
-0.564375  -0.407987  -0.717654  0
-0.543525  -0.407799  -0.733676  0
-0.493049  -0.398820  -0.773205  0
-0.279416  -0.358045  -0.890916  0
-0.342002  -0.367256  -0.864961  0
-0.254085  -0.344190  -0.903866  0
-0.228057  -0.328188  -0.916669  0
-0.160767  -0.317758  -0.934443  0
-0.061782  -0.287373  -0.955824  0
-0.094892  -0.312186  -0.945270  0
-0.028661  -0.333253  -0.942402  0
0.010094  -0.314772  -0.949114  0
0.053652  -0.317314  -0.946801  0
0.127240  -0.302172  -0.944723  0
0.090978  -0.323945  -0.941691  0
-0.192017  -0.358242  -0.913670  0
-0.145944  -0.361695  -0.920802  0
-0.110923  -0.362009  -0.925551  0
0.074553  -0.365113  -0.927973  0
0.044720  -0.361314  -0.931371  0
0.113911  -0.358126  -0.926698  0
0.151156  -0.343276  -0.926992  0
0.179995  -0.352117  -0.918485  0
0.238954  -0.346274  -0.907191  0
0.203059  -0.361951  -0.909812  0
0.201863  -0.385388  -0.900404  0
0.234000  -0.382204  -0.893960  0
0.253033  -0.387402  -0.886507  0
0.303951  -0.386665  -0.870692  0
0.279769  -0.386848  -0.878680  0
0.990965  0.045696  -0.126097  0
0.995143  0.004945  -0.098314  0
0.994258  0.067737  -0.082841  0
0.989612  0.137870  -0.040755  0
0.994541  0.095895  -0.041130  0
0.993735  0.101240  -0.047337  0
0.995121  0.064259  -0.074861  0
0.991110  0.106768  -0.079385  0
0.974664  0.172792  -0.142033  0
0.976959  0.184146  -0.107898  0
0.974182  0.168579  -0.150169  0
0.955864  0.138717  -0.259001  0
0.970380  0.146055  -0.192434  0
0.966734  0.129049  -0.220844  0
0.974523  0.109395  -0.195800  0
0.957852  0.110962  -0.264968  0
0.942712  0.094914  -0.319821  0
0.934154  0.112194  -0.338775  0
0.833157  0.101087  -0.543719  0
0.862607  0.107219  -0.494382  0
0.819870  0.098136  -0.564077  0
0.807931  0.092458  -0.581978  0
0.783306  0.086661  -0.615566  0
0.719879  -0.352188  -0.598113  0
0.804658  -0.256341  -0.535551  0
0.727489  -0.249327  -0.639215  0
0.647994  -0.084654  -0.756927  0
0.717810  -0.093122  -0.689984  0
0.711326  -0.037587  -0.701857  0
0.768612  0.006063  -0.639687  0
0.703548  0.001386  -0.710646  0
0.411259  -0.067183  -0.909039  0
0.460690  -0.065697  -0.885126  0
0.472828  -0.037964  -0.880337  0
0.583582  0.017198  -0.811872  0
0.582367  0.007339  -0.812893  0
0.630946  0.028302  -0.775310  0
0.683439  0.037649  -0.729037  0
0.677259  0.045761  -0.734320  0
0.721208  0.063291  -0.689821  0
0.674873  0.049468  -0.736274  0
0.635983  0.022607  -0.771372  0
0.675038  0.042479  -0.736559  0
0.681388  0.041409  -0.730751  0
0.720779  0.059064  -0.690644  0
0.689387  0.041086  -0.723228  0
0.697682  0.038626  -0.715365  0
0.657848  0.018586  -0.752921  0
0.564284  -0.057581  -0.823570  0
0.609771  -0.035274  -0.791792  0
0.590912  -0.068094  -0.803857  0
0.619202  -0.077708  -0.781377  0
0.572355  -0.104414  -0.813331  0
0.405737  -0.121133  -0.905927  0
0.443085  -0.108454  -0.889895  0
0.424334  -0.139556  -0.894687  0
0.439183  -0.216484  -0.871925  0
0.461414  -0.180098  -0.868713  0
0.484170  -0.200090  -0.851788  0
0.532921  -0.179173  -0.826978  0
0.509594  -0.217030  -0.832594  0
0.538288  -0.231860  -0.810239  0
0.485574  -0.251277  -0.837304  0
0.382942  -0.326688  -0.864078  0
0.429557  -0.316124  -0.845900  0
0.399637  -0.343060  -0.850059  0
0.419288  -0.354963  -0.835583  0
0.367697  -0.364712  -0.855444  0
0.952429  -0.111429  -0.283659  0
0.928578  -0.128621  -0.348137  0
0.924275  -0.156851  -0.348015  0
0.846234  -0.251640  -0.469644  0
0.853009  -0.228836  -0.469052  0
0.809955  -0.258083  -0.526655  0
0.766608  -0.260751  -0.586788  0
0.763573  -0.283375  -0.580220  0
0.814315  -0.304926  -0.493873  0
0.821121  -0.297270  -0.487227  0
0.781758  -0.320580  -0.534866  0
0.671674  -0.345654  -0.655269  0
0.711573  -0.334363  -0.617953  0
0.674434  -0.333421  -0.658764  0
0.675067  -0.318203  -0.665605  0
0.635113  -0.327213  -0.699688  0
0.596387  -0.316415  -0.737702  0
0.600700  -0.333156  -0.726750  0
0.563750  -0.342680  -0.751503  0
0.555395  -0.335892  -0.760732  0
0.548655  -0.332032  -0.767289  0
0.539862  -0.318418  -0.779205  0
0.552491  -0.324592  -0.767720  0
0.794727  -0.216612  -0.566999  0
0.789491  -0.237600  -0.565907  0
0.766649  -0.221856  -0.602519  0
0.695729  -0.210974  -0.686623  0
0.710009  -0.237449  -0.662952  0
0.684315  -0.247826  -0.685781  0
0.677200  -0.281761  -0.679714  0
0.660959  -0.257722  -0.704778  0
0.704405  -0.068086  -0.706525  0
0.694534  -0.103637  -0.711956  0
0.687174  -0.103705  -0.719053  0
0.643811  -0.202598  -0.737876  0
0.648177  -0.193914  -0.736386  0
0.627787  -0.243370  -0.739361  0
0.623455  -0.276616  -0.731292  0
0.611010  -0.283080  -0.739279  0
0.596648  -0.307354  -0.741313  0
0.602531  -0.286582  -0.744867  0
0.642165  -0.254548  -0.723069  0
0.606072  -0.284156  -0.742921  0
0.617479  -0.280163  -0.735002  0
0.594885  -0.295857  -0.747382  0
0.635474  -0.273595  -0.722024  0
0.662393  -0.263992  -0.701102  0
0.687916  -0.244137  -0.683498  0
0.808988  -0.140370  -0.570819  0
0.793861  -0.174866  -0.582415  0
0.830036  -0.147928  -0.537733  0
0.845335  -0.157740  -0.510419  0
0.850861  -0.131742  -0.508605  0
0.812739  -0.021477  -0.582232  0
0.822079  -0.041395  -0.567867  0
0.823169  -0.043179  -0.566153  0
0.807144  -0.124223  -0.577137  0
0.830588  -0.102024  -0.547461  0
0.827232  -0.134646  -0.545489  0
0.842732  -0.144105  -0.518688  0
0.818842  -0.165201  -0.549733  0
0.801409  -0.197567  -0.564545  0
0.782508  -0.192487  -0.592140  0
0.641007  -0.256545  -0.723391  0
0.673130  -0.259753  -0.692405  0
0.607907  -0.290643  -0.738902  0
0.575453  -0.318419  -0.753301  0
0.541070  -0.318197  -0.778456  0
-0.605019  0.199221  0.770884  0
-0.609071  0.193554  0.769136  0
-0.588975  0.200508  0.782883  0
-0.572859  0.202436  0.794262  0
-0.558352  0.204062  0.804116  0
-0.579404  0.204516  0.788964  0
-0.601535  0.206141  0.771791  0
-0.590230  0.206575  0.780356  0
-0.598840  0.205145  0.774148  0
-0.532311  0.198076  0.823050  0
-0.535656  0.192508  0.822200  0
-0.544375  0.200739  0.814469  0
-0.559918  0.202517  0.803417  0
-0.529543  0.204698  0.823215  0
-0.521228  0.201079  0.829391  0
-0.530517  0.201733  0.823320  0
-0.530839  0.199698  0.823609  0
-0.545997  0.206655  0.811900  0
-0.547218  0.207208  0.810936  0
-0.537654  0.207311  0.817282  0
-0.454961  0.756609  0.469631  0
-0.422103  0.765202  0.486102  0
-0.452773  0.736809  0.502105  0
-0.456513  0.713453  0.531582  0
-0.463506  0.690077  0.555838  0
-0.540738  0.717818  0.438566  0
-0.524678  0.742646  0.416162  0
-0.516663  0.731832  0.444388  0
-0.487000  0.745560  0.454941  0
-0.562511  0.654933  0.504622  0
-0.574360  0.661571  0.482115  0
-0.561014  0.672705  0.482422  0
-0.553993  0.694881  0.458510  0
-0.545565  -0.119727  -0.829472  0
-0.453924  -0.118689  -0.883100  0
-0.537841  -0.046106  -0.841784  0
-0.556816  0.046287  -0.829345  0
-0.610669  0.147162  -0.778092  0
-0.891844  0.005271  -0.452313  0
-0.807632  -0.100643  -0.581034  0
-0.791316  -0.062431  -0.608212  0
-0.663311  -0.108274  -0.740469  0
-0.531544  -0.356084  0.768548  0
-0.618828  -0.400241  0.675914  0
-0.593398  -0.350159  0.724754  0
-0.654153  -0.328879  0.681119  0
-0.706074  -0.294933  0.643797  0
-0.325888  -0.204531  0.923019  0
-0.343871  -0.240511  0.907693  0
-0.370991  -0.250234  0.894287  0
-0.441625  -0.304682  0.843882  0
0.126197  -0.772600  0.622225  0
0.049130  -0.798378  0.600149  0
-0.050740  -0.794123  0.605635  0
-0.209578  -0.785816  0.581868  0
-0.337553  -0.758906  0.556884  0
0.205530  -0.641606  0.738986  0
0.354169  -0.630485  0.690691  0
0.209577  -0.686064  0.696702  0
0.183719  -0.732031  0.656032  0
0.992008  -0.050069  0.115819  0
0.985834  -0.047165  0.160954  0
0.990722  -0.054890  0.124324  0
0.990368  -0.057044  0.126160  0
0.991005  -0.059693  0.119775  0
0.887676  -0.009569  -0.460370  0
0.844137  -0.053446  -0.533458  0
0.870146  -0.051203  -0.490126  0
0.860640  -0.095908  -0.500100  0
0.857002  -0.137060  -0.496752  0
-0.955657  0.170201  -0.240315  0
-0.945385  0.232148  -0.228813  0
-0.942679  0.187384  -0.276121  0
-0.925585  0.200880  -0.320842  0
-0.900762  0.213025  -0.378482  0
-0.997716  0.028257  0.061360  0
-0.998999  0.019996  0.040019  0
-0.997386  0.046784  0.055065  0
-0.995640  0.074177  0.056551  0
-0.991767  0.108969  0.067262  0
-0.599469  -0.789172  -0.133583  0
-0.580832  -0.779775  -0.233634  0
-0.637652  -0.744356  -0.198330  0
-0.678404  -0.693070  -0.243766  0
-0.714562  -0.645685  -0.269242  0
0.949021  -0.242475  -0.201406  0
0.953435  -0.224306  -0.201615  0
0.963334  -0.206683  -0.171083  0
0.978731  -0.155785  -0.133480  0
0.991015  -0.090619  -0.098376  0
-0.809744  0.338179  0.479531  0
-0.816318  0.359007  0.452480  0
-0.815635  0.331824  0.473954  0
-0.823421  0.324081  0.465778  0
-0.829877  0.317174  0.459026  0
-0.525880  0.357951  0.771571  0
-0.557341  0.365055  0.745725  0
-0.523933  0.376023  0.764265  0
-0.527103  0.393269  0.753327  0
-0.532113  0.411345  0.740035  0
-0.536934  0.429226  0.726269  0
-0.510842  0.419775  0.750220  0
-0.499147  0.426416  0.754335  0
-0.494964  0.432111  0.753851  0
-0.718877  -0.294941  0.629464  0
-0.703551  -0.262160  0.660521  0
-0.731314  -0.247529  0.635539  0
-0.743327  -0.191381  0.640967  0
-0.752380  -0.130437  0.645687  0
-0.773320  0.222261  0.593781  0
-0.768082  0.231820  0.596917  0
-0.777652  0.240807  0.580749  0
-0.782668  0.260714  0.565207  0
-0.787488  0.281717  0.548177  0
-0.793448  0.302115  0.528362  0
-0.796035  0.298312  0.526630  0
-0.803883  0.317715  0.502822  0
-0.431281  -0.183483  0.883363  0
-0.489883  -0.211882  0.845648  0
-0.491822  -0.174849  0.852959  0
-0.541332  -0.173269  0.822762  0
-0.584132  -0.179091  0.791654  0
-0.761730  -0.239505  0.602000  0
-0.759282  -0.284985  0.585042  0
-0.766340  -0.283354  0.576570  0
-0.764126  -0.323172  0.558275  0
-0.755121  -0.352780  0.552575  0
-0.739349  -0.371163  0.561784  0
-0.745968  -0.340137  0.572571  0
-0.734378  -0.319271  0.598962  0
0.677159  0.160807  0.718050  0
0.808683  0.116386  0.576617  0
0.664639  0.148518  0.732255  0
0.657787  0.134540  0.741090  0
0.639757  0.121969  0.758838  0
-0.326162  -0.016734  0.945166  0
-0.255472  -0.034092  0.966215  0
-0.300830  -0.048668  0.952435  0
-0.272902  -0.082376  0.958509  0
-0.240820  -0.120371  0.963077  0
-0.208097  -0.164061  0.964251  0
-0.304736  -0.140805  0.941971  0
-0.368923  -0.160591  0.915481  0
-0.495506  0.439349  0.749298  0
-0.490597  0.417576  0.764817  0
-0.491283  0.402783  0.772274  0
-0.497550  0.388557  0.775543  0
-0.286585  0.242929  0.926744  0
-0.281265  0.259994  0.923739  0
-0.180825  0.250223  0.951152  0
-0.034914  0.258622  0.965347  0
0.141471  0.261185  0.954866  0
0.342211  0.254979  0.904366  0
0.330022  0.237004  0.913737  0
0.512645  0.202010  0.834498  0
0.945641  0.320056  -0.057676  0
0.959804  0.279658  -0.023843  0
0.949940  0.311934  -0.017654  0
0.952858  0.302971  0.016449  0
0.955402  0.292286  0.042129  0
0.837035  0.389129  0.384643  0
0.904665  0.308899  0.293534  0
0.891042  0.314380  0.327427  0
0.926578  0.252043  0.279155  0
0.950187  0.200859  0.238330  0
0.965327  0.159763  0.206445  0
0.941853  0.205611  0.265778  0
0.930659  0.214069  0.296728  0
0.915487  0.224305  0.334023  0
-0.757084  0.416604  -0.503255  0
-0.714779  0.402670  -0.571793  0
-0.700253  0.494047  -0.515328  0
-0.643411  0.555300  -0.526939  0
-0.585337  0.609106  -0.535136  0
0.591124  0.787733  -0.173347  0
0.556238  0.789714  -0.258747  0
0.691532  0.695292  -0.195836  0
0.765542  0.606770  -0.213951  0
0.825171  0.518833  -0.223394  0
0.867539  0.442630  -0.226837  0
0.886140  0.436510  -0.155615  0
0.922810  0.371147  -0.103301  0
-0.910279  0.292029  0.293447  0
-0.917191  0.285900  0.277529  0
-0.913944  0.280142  0.293643  0
-0.915873  0.275988  0.291559  0
-0.918435  0.275794  0.283575  0
-0.781791  0.623234  -0.019551  0
-0.826675  0.561507  -0.036299  0
-0.810665  0.575605  -0.107249  0
-0.837590  0.509910  -0.196047  0
-0.858043  0.430050  -0.280747  0
-0.869659  0.337503  -0.360257  0
-0.831253  0.429992  -0.352315  0
-0.798083  0.427366  -0.424761  0
-0.685708  0.548671  0.478294  0
-0.660505  0.531005  0.530817  0
-0.715068  0.526113  0.460307  0
-0.752055  0.498606  0.431051  0
-0.797834  0.463277  0.385791  0
-0.577862  -0.120089  -0.807251  0
-0.671572  -0.101414  -0.733966  0
-0.659412  -0.119648  -0.742199  0
-0.735625  -0.114297  -0.667676  0
-0.805679  -0.104201  -0.583115  0
-0.860537  -0.091542  -0.501096  0
-0.788179  -0.132103  -0.601101  0
-0.778989  -0.158853  -0.606582  0
-0.775381  -0.184485  -0.603945  0
-0.972164  -0.022396  0.233228  0
-0.982240  -0.034573  0.184414  0
-0.993890  -0.039202  0.103175  0
-0.998269  -0.051651  -0.028127  0
-0.986173  -0.059355  -0.154726  0
-0.777051  0.223137  -0.588559  0
-0.799898  0.303765  -0.517581  0
-0.847073  0.395900  -0.354585  0
-0.846199  0.527703  -0.074011  0
-0.791556  0.589973  0.159284  0
-0.731254  0.603555  0.317788  0
-0.754909  0.584645  0.297159  0
-0.720100  0.566776  0.400276  0
-0.858380  -0.474470  0.195094  0
-0.876308  -0.448107  0.176875  0
-0.879804  -0.442264  0.174207  0
-0.893590  -0.420624  0.156756  0
-0.901314  -0.409608  0.140909  0
-0.902504  -0.429479  -0.032163  0
-0.893781  -0.447685  -0.027099  0
-0.917152  -0.397547  -0.028078  0
-0.932327  -0.361141  -0.018553  0
-0.945991  -0.324130  -0.006304  0
-0.959138  -0.282782  0.009395  0
-0.969669  -0.244183  0.010837  0
-0.987841  -0.150927  0.037307  0
-0.996140  -0.043390  0.076303  0
-0.713643  -0.442042  0.543426  0
-0.686512  -0.472492  0.552677  0
-0.675702  -0.451401  0.582807  0
-0.624689  -0.465063  0.627281  0
-0.564196  -0.481057  0.671019  0
-0.719605  -0.568588  0.398593  0
-0.662690  -0.599507  0.448813  0
-0.731862  -0.572846  0.369087  0
-0.742211  -0.575368  0.343619  0
-0.745736  -0.582539  0.323304  0
-0.749370  -0.587769  0.304914  0
-0.797010  -0.542514  0.265430  0
-0.832895  -0.506278  0.223537  0
0.994368  -0.069495  -0.080022  0
0.995393  -0.045759  -0.084253  0
0.995907  -0.072431  -0.054062  0
0.996366  -0.082923  -0.019454  0
0.993956  -0.107006  0.024531  0
-0.300178  -0.769955  0.563083  0
-0.233774  -0.795697  0.558764  0
-0.290419  -0.777434  0.557901  0
-0.281365  -0.788099  0.547479  0
-0.273766  -0.802035  0.530841  0
-0.270425  -0.815531  0.511644  0
-0.305250  -0.791058  0.530141  0
-0.326451  -0.782523  0.530177  0
-0.343236  -0.776411  0.528559  0
0.998483  -0.031795  -0.044958  0
0.999225  -0.021889  -0.032711  0
0.999689  -0.011037  -0.022340  0
0.999941  0.010508  0.002789  0
0.999312  0.027080  0.025361  0
0.992032  -0.122628  0.028894  0
0.995408  -0.094488  0.015341  0
0.994173  -0.107679  0.005123  0
0.995146  -0.096966  -0.016819  0
0.995197  -0.090065  -0.038358  0
0.994225  -0.088278  -0.061019  0
0.994640  -0.088567  -0.053362  0
0.994348  -0.081199  -0.068407  0
0.975513  0.152642  0.158352  0
0.981885  0.131547  0.136374  0
0.976472  0.132778  0.169916  0
0.976754  0.113084  0.182109  0
0.976940  0.094259  0.191579  0
0.929515  -0.093387  0.356764  0
0.940323  -0.095937  0.326480  0
0.940579  -0.111703  0.320677  0
0.952245  -0.133794  0.274460  0
0.962208  -0.159132  0.220982  0
0.969200  -0.185755  0.161700  0
0.963164  -0.176192  0.203152  0
0.964518  -0.190309  0.182994  0
0.966401  -0.200348  0.161026  0
-0.150654  0.096506  -0.983865  0
-0.163318  0.102154  -0.981271  0
-0.099652  0.084045  -0.991466  0
-0.045736  0.072257  -0.996337  0
0.017612  0.060178  -0.998032  0
0.524149  -0.229047  -0.820247  0
0.548608  -0.210751  -0.809081  0
0.569874  -0.233301  -0.787918  0
0.624713  -0.235525  -0.744488  0
0.681878  -0.233917  -0.693055  0
0.736011  -0.227296  -0.637671  0
0.699527  -0.243741  -0.671753  0
0.717083  -0.244990  -0.652512  0
0.734454  -0.241330  -0.634301  0
-0.587271  0.639788  0.495767  0
-0.601699  0.650253  0.463820  0
-0.595405  0.658458  0.460354  0
-0.604890  0.677319  0.418744  0
-0.614236  0.697038  0.369936  0
-0.019932  0.856665  -0.515487  0
-0.102212  0.858348  -0.502784  0
0.063648  0.800630  -0.595768  0
0.127457  0.718616  -0.683626  0
0.170363  0.608401  -0.775129  0
0.204609  0.476976  -0.854768  0
0.326876  0.503025  -0.800074  0
0.466530  0.395367  -0.791223  0
0.582741  0.285619  -0.760812  0
-0.915291  -0.400958  0.038396  0
-0.906223  -0.422126  -0.023840  0
-0.916620  -0.399658  -0.009005  0
-0.917046  -0.393842  -0.062571  0
-0.912831  -0.388679  -0.125174  0
-0.825523  -0.143081  -0.545931  0
-0.778599  -0.195578  -0.596266  0
-0.754046  -0.178738  -0.632034  0
-0.666831  -0.215704  -0.713308  0
-0.575686  -0.249922  -0.778540  0
-0.483621  -0.277725  -0.830048  0
-0.545160  -0.234223  -0.804947  0
-0.515053  -0.216321  -0.829413  0
-0.484800  -0.196450  -0.852277  0
0.987723  0.019634  -0.154974  0
0.980560  0.062632  -0.185954  0
0.975061  -0.013101  -0.221549  0
0.951051  -0.042749  -0.306062  0
0.912973  -0.068368  -0.402251  0
0.077804  -0.198048  -0.977100  0
0.176105  -0.153821  -0.972279  0
0.131967  -0.170898  -0.976411  0
0.181683  -0.151467  -0.971622  0
0.226519  -0.138982  -0.964040  0
0.260743  -0.137736  -0.955532  0
0.191856  -0.166074  -0.967270  0
0.156614  -0.195313  -0.968156  0
0.119951  -0.226681  -0.966555  0
0.882610  -0.256058  -0.394251  0
0.855466  -0.275231  -0.438662  0
0.851391  -0.269159  -0.450208  0
0.819615  -0.276959  -0.501524  0
0.788529  -0.277512  -0.548825  0
0.783126  0.059579  -0.619002  0
0.766981  0.047318  -0.639923  0
0.774703  0.064887  -0.628988  0
0.770133  0.064970  -0.634565  0
0.769481  0.059266  -0.635914  0
0.771362  0.048010  -0.634583  0
0.762501  0.056172  -0.644544  0
0.747167  0.046221  -0.663027  0
0.725702  0.031535  -0.687286  0
-0.761894  0.174268  0.623817  0
-0.769377  0.179616  0.613023  0
-0.753879  0.172198  0.634047  0
-0.740568  0.175324  0.648706  0
-0.722535  0.180323  0.667403  0
-0.601650  0.203065  0.772517  0
-0.622476  0.202429  0.756007  0
-0.593995  0.216921  0.774671  0
-0.585786  0.233355  0.776144  0
-0.575489  0.252484  0.777859  0
-0.563687  0.271489  0.780097  0
-0.544168  0.269958  0.794357  0
-0.514252  0.289181  0.807415  0
-0.491840  0.307071  0.814740  0
-0.727706  0.028910  0.685280  0
-0.743396  0.035265  0.667921  0
-0.726420  0.071726  0.683498  0
-0.724963  0.107118  0.680407  0
-0.723832  0.139607  0.675705  0
-0.688704  0.195407  0.698214  0
-0.698206  0.198756  0.687753  0
-0.707604  0.189325  0.680774  0
-0.723364  0.185791  0.665001  0
-0.737069  0.183607  0.650398  0
-0.748524  0.183795  0.637128  0
-0.745254  0.176809  0.642911  0
-0.753968  0.173193  0.633669  0
-0.464719  0.042507  0.884437  0
-0.483119  0.020252  0.875321  0
-0.485396  0.042765  0.873248  0
-0.505871  0.040062  0.861679  0
-0.527515  0.035023  0.848824  0
-0.584202  0.125282  0.801881  0
-0.579579  0.094787  0.809385  0
-0.606388  0.096289  0.789317  0
-0.630492  0.061062  0.773790  0
-0.656984  0.019388  0.753655  0
-0.685207  -0.031756  0.727656  0
-0.683597  0.019735  0.729593  0
-0.707833  0.025301  0.705926  0
-0.400957  0.200030  0.893992  0
-0.354087  0.188462  0.916027  0
-0.400569  0.189590  0.896437  0
-0.399771  0.181871  0.898391  0
-0.400872  0.171854  0.899871  0
-0.474856  0.148728  0.867405  0
-0.458744  0.144091  0.876808  0
-0.461246  0.128761  0.877880  0
-0.448136  0.108085  0.887407  0
-0.432516  0.087647  0.897356  0
-0.415241  0.067886  0.907175  0
-0.439620  0.072996  0.895213  0
-0.451153  0.059693  0.890448  0
-0.481309  0.318842  0.816505  0
-0.489921  0.303723  0.817147  0
-0.491076  0.297957  0.818576  0
-0.494227  0.287518  0.820410  0
-0.503412  0.225205  0.834181  0
-0.501512  0.234283  0.832825  0
-0.497397  0.227907  0.837051  0
-0.491818  0.229650  0.839867  0
-0.483634  0.230161  0.844467  0
-0.470164  0.231352  0.851717  0
-0.466510  0.220876  0.856494  0
-0.439293  0.211206  0.873163  0
0.384087  0.912244  0.142436  0
0.538465  0.829065  0.150686  0
0.384630  0.897819  0.214432  0
0.380047  0.884246  0.271428  0
0.366487  0.867861  0.335417  0
-0.175914  0.808062  0.562219  0
-0.038539  0.841090  0.539521  0
-0.070795  0.810021  0.582112  0
0.055564  0.800273  0.597056  0
0.201597  0.774797  0.599206  0
0.348901  0.727221  0.591115  0
0.141217  0.752882  0.642827  0
0.092040  0.728545  0.678786  0
0.040813  0.704543  0.708486  0
-0.619727  0.777080  0.109933  0
-0.595280  0.802419  0.042027  0
-0.584947  0.804185  0.105471  0
-0.546365  0.830817  0.105963  0
-0.502014  0.858999  0.100510  0
-0.377950  0.884755  0.272694  0
-0.381837  0.897698  0.219859  0
-0.304445  0.925083  0.227011  0
-0.213843  0.961580  0.172148  0
-0.105175  0.988201  0.111342  0
0.029690  0.998358  0.048997  0
0.042561  0.991264  0.124838  0
0.213655  0.967835  0.132840  0
-0.778369  0.452776  0.434896  0
-0.798246  0.439499  0.411879  0
-0.764663  0.480503  0.429425  0
-0.746985  0.514578  0.420978  0
-0.730523  0.548504  0.406792  0
-0.618534  0.689366  0.377081  0
-0.643792  0.667010  0.375005  0
-0.632769  0.693345  0.344784  0
-0.648040  0.696334  0.308485  0
-0.664996  0.696315  0.270050  0
-0.684457  0.694490  0.221815  0
-0.653095  0.723671  0.223085  0
-0.636588  0.752101  0.170586  0
-0.447900  -0.154307  -0.880667  0
-0.481189  -0.121501  -0.868156  0
-0.403585  -0.166515  -0.899662  0
-0.360641  -0.171481  -0.916805  0
-0.324410  -0.171264  -0.930283  0
-0.265341  -0.099115  -0.959047  0
-0.243970  -0.127965  -0.961303  0
-0.258343  -0.098241  -0.961045  0
-0.264586  -0.099984  -0.959165  0
-0.281261  -0.102358  -0.954157  0
-0.314648  -0.105441  -0.943334  0
-0.315885  -0.082895  -0.945169  0
-0.367970  -0.062985  -0.927702  0
-0.439028  -0.045367  -0.897327  0
-0.954826  -0.140291  -0.261967  0
-0.920936  -0.175700  -0.347860  0
-0.901208  -0.187630  -0.390666  0
-0.832641  -0.225014  -0.506040  0
-0.757881  -0.249994  -0.602595  0
-0.504988  -0.275908  -0.817840  0
-0.543618  -0.280138  -0.791203  0
-0.477482  -0.273741  -0.834911  0
-0.463908  -0.260056  -0.846853  0
-0.466050  -0.234417  -0.853139  0
-0.484479  -0.195049  -0.852781  0
-0.442363  -0.211014  -0.871658  0
-0.433766  -0.185616  -0.881699  0
-0.776820  -0.543580  0.317918  0
-0.809265  -0.538866  0.233911  0
-0.790422  -0.548739  0.272248  0
-0.798119  -0.555340  0.233676  0
-0.803646  -0.562798  0.193418  0
-0.820416  -0.502464  0.272850  0
-0.817142  -0.533938  0.217232  0
-0.838787  -0.509411  0.192187  0
-0.850018  -0.510885  0.128316  0
-0.856344  -0.510805  0.075852  0
-0.863235  -0.503568  0.035287  0
-0.878093  -0.474611  0.060801  0
-0.902458  -0.428327  0.045888  0
-0.928805  -0.369345  0.030097  0
-0.515217  -0.242568  0.822017  0
-0.498468  -0.260695  0.826781  0
-0.459381  -0.241565  0.854761  0
-0.419769  -0.253453  0.871525  0
-0.402152  -0.280056  0.871689  0
-0.497589  -0.398136  0.770644  0
-0.471213  -0.380211  0.795863  0
-0.536310  -0.436092  0.722631  0
-0.578794  -0.471010  0.665693  0
-0.614506  -0.500269  0.610011  0
-0.642895  -0.525136  0.557600  0
-0.678640  -0.527121  0.511460  0
-0.733014  -0.540214  0.413352  0
0.891410  -0.391068  0.229029  0
0.874238  -0.419513  0.244372  0
0.814404  -0.495033  0.302803  0
0.695733  -0.605916  0.385775  0
0.526451  -0.710896  0.466343  0
-0.202573  -0.804067  0.558963  0
-0.105718  -0.817834  0.565660  0
-0.240671  -0.794906  0.556957  0
-0.262733  -0.785948  0.559694  0
-0.284762  -0.777619  0.560553  0
-0.298572  -0.771582  0.561709  0
-0.362659  -0.750483  0.552498  0
-0.417844  -0.726288  0.545813  0
-0.449131  -0.708159  0.544786  0
0.953048  -0.126967  0.274914  0
0.975737  -0.082125  0.202959  0
0.956272  -0.127252  0.263345  0
0.957075  -0.138736  0.254479  0
0.958731  -0.151070  0.240857  0
0.785365  -0.458180  0.416261  0
0.866637  -0.357057  0.348498  0
0.850960  -0.395647  0.345444  0
0.899373  -0.337711  0.277633  0
0.933496  -0.284911  0.217742  0
0.956438  -0.240517  0.165460  0
0.921217  -0.322612  0.217440  0
0.908164  -0.355397  0.221204  0
0.952527  0.079478  0.293897  0
0.945689  0.084383  0.313931  0
0.947173  0.066748  0.313701  0
0.941532  0.052257  0.332846  0
0.935475  0.035706  0.351585  0
0.940094  -0.036061  0.339003  0
0.931645  -0.024510  0.362542  0
0.927708  -0.036582  0.371510  0
0.918284  -0.038523  0.394043  0
0.911959  -0.043565  0.407963  0
0.909027  -0.051943  0.413488  0
0.911248  -0.055933  0.408043  0
0.912151  -0.063190  0.404953  0
0.914923  -0.065870  0.398217  0
0.463853  -0.000459  -0.885912  0
0.391024  -0.024841  -0.920045  0
0.473473  -0.036488  -0.880052  0
0.478538  -0.068841  -0.875364  0
0.479476  -0.095876  -0.872302  0
0.634278  -0.181226  -0.751564  0
0.583982  -0.172250  -0.793281  0
0.581773  -0.198505  -0.788756  0
0.538777  -0.210214  -0.815800  0
0.504585  -0.218030  -0.835378  0
0.478237  -0.221920  -0.849730  0
0.511888  -0.242281  -0.824179  0
0.521061  -0.264484  -0.811507  0
0.531592  -0.284886  -0.797653  0
-0.842036  0.492277  0.220542  0
-0.798228  0.553336  0.238016  0
-0.834491  0.519271  0.184341  0
-0.822986  0.550333  0.140810  0
-0.809312  0.580937  0.086753  0
-0.813193  0.523393  -0.254515  0
-0.795698  0.577587  -0.182366  0
-0.745697  0.609245  -0.269735  0
-0.664788  0.691581  -0.282440  0
-0.563631  0.768612  -0.302583  0
-0.446410  0.832051  -0.329256  0
-0.451335  0.795799  -0.403733  0
-0.323773  0.798510  -0.507496  0
-0.171581  0.776970  -0.605704  0
-0.980379  -0.192544  0.042241  0
-0.979175  -0.202042  0.019901  0
-0.985659  -0.167357  0.021623  0
-0.989635  -0.143599  -0.001557  0
-0.992626  -0.118903  -0.023558  0
-0.999798  0.016610  -0.011354  0
-0.999611  -0.009558  -0.026199  0
-0.998985  0.010117  -0.043892  0
-0.996144  -0.000296  -0.087732  0
-0.989196  -0.013757  -0.145951  0
-0.975755  -0.033807  -0.216240  0
-0.984014  0.009030  -0.177862  0
-0.977899  0.033483  -0.206381  0
-0.970039  0.059798  -0.235474  0
0.290204  -0.885130  -0.363766  0
0.376213  -0.787396  -0.488335  0
0.216370  -0.851837  -0.477031  0
0.147728  -0.798648  -0.583385  0
0.070597  -0.737527  -0.671618  0
-0.438761  -0.640149  -0.630633  0
-0.329766  -0.636375  -0.697338  0
-0.383327  -0.583618  -0.715856  0
-0.316242  -0.521379  -0.792562  0
-0.246921  -0.456575  -0.854733  0
-0.177790  -0.393320  -0.902048  0
-0.297439  -0.430554  -0.852146  0
-0.342755  -0.412593  -0.843971  0
-0.383725  -0.400052  -0.832294  0
0.880779  -0.217828  -0.420452  0
0.860403  -0.206589  -0.465863  0
0.869976  -0.208937  -0.446640  0
0.862648  -0.194717  -0.466823  0
0.859815  -0.175571  -0.479471  0
0.949062  -0.109899  -0.295302  0
0.923274  -0.119324  -0.365141  0
0.936873  -0.078008  -0.340856  0
0.918045  -0.048977  -0.393438  0
0.895467  -0.021394  -0.444614  0
0.868624  0.003051  -0.495463  0
0.900435  0.013789  -0.434771  0
0.901653  0.042896  -0.430327  0
0.899185  0.067823  -0.432280  0
-0.905344  0.399281  0.144661  0
-0.896856  0.423870  0.126429  0
-0.878891  0.435056  0.195646  0
-0.860823  0.452179  0.233492  0
-0.849564  0.458915  0.260073  0
-0.841963  0.406468  0.354800  0
-0.841367  0.422898  0.336540  0
-0.850076  0.407439  0.333714  0
-0.858838  0.403062  0.316128  0
-0.868760  0.391969  0.302682  0
-0.879170  0.374683  0.294402  0
-0.878318  0.370087  0.302644  0
-0.886075  0.350996  0.302776  0
-0.889199  0.338677  0.307609  0
-0.797236  0.241728  0.553156  0
-0.814391  0.260264  0.518681  0
-0.803112  0.261555  0.535350  0
-0.808560  0.280866  0.517055  0
-0.813239  0.299238  0.499098  0
-0.716655  0.386251  0.580703  0
-0.757045  0.366912  0.540609  0
-0.756600  0.385307  0.528295  0
-0.791330  0.383503  0.476153  0
-0.821099  0.376265  0.429209  0
-0.844410  0.366169  0.391014  0
-0.819988  0.382000  0.426258  0
-0.818799  0.384539  0.426261  0
-0.816070  0.389323  0.427151  0
-0.812388  0.395219  0.428752  0
-0.787380  0.412079  0.458502  0
-0.755627  0.435212  0.489508  0
-0.722374  0.460437  0.515919  0
-0.557882  0.508044  0.656246  0
-0.586386  0.514450  0.625694  0
-0.559919  0.530258  0.636645  0
-0.559364  0.552450  0.617990  0
-0.558482  0.573530  0.599301  0
-0.558899  0.592060  0.580601  0
-0.538582  0.587876  0.603598  0
-0.522424  0.599436  0.606424  0
-0.510231  0.609315  0.606959  0
-0.386283  -0.136707  0.912193  0
-0.413180  -0.112391  0.903687  0
-0.426396  -0.130996  0.895001  0
-0.472002  -0.126120  0.872530  0
-0.517062  -0.117686  0.847819  0
-0.671212  -0.093732  0.735315  0
-0.647388  -0.092983  0.756468  0
-0.683480  -0.054926  0.727900  0
-0.707306  -0.023785  0.706507  0
-0.744186  -0.001185  0.667971  0
-0.788120  0.010774  0.615427  0
-0.777682  0.025794  0.628128  0
-0.807918  0.048039  0.587334  0
-0.835105  0.063901  0.546366  0
-0.767080  0.076961  0.636919  0
-0.770036  0.043878  0.636490  0
-0.765447  0.090591  0.637091  0
-0.761653  0.106892  0.639108  0
-0.759244  0.122215  0.639227  0
-0.773256  0.224175  0.593145  0
-0.770823  0.201528  0.604333  0
-0.785588  0.206118  0.583409  0
