#!ascii version of lh.pial (vertices are surface normals)
10242 20480
-0.766465  0.509170  0.391507  0
-0.258546  0.192749  0.946574  0
-0.413800  0.277718  0.866973  0
-0.917544  -0.211681  -0.336606  0
0.454858  0.624844  0.634566  0
0.279639  0.638563  0.716965  0
-0.065680  -0.523693  -0.849371  0
0.794578  0.168803  -0.583225  0
-0.746768  -0.097592  -0.657886  0
-0.842261  0.162553  -0.513978  0
-0.018689  0.079424  -0.996666  0
-0.972014  -0.125732  -0.198447  0
-0.984470  0.083298  0.154531  0
-0.298454  -0.950158  0.090132  0
0.759751  0.071515  0.646269  0
0.523346  0.163874  0.836214  0
-0.345599  -0.831759  0.434441  0
-0.667883  -0.017774  0.744054  0
-0.619973  -0.741608  0.256225  0
0.450364  0.531786  0.717200  0
0.815906  0.576808  0.039879  0
0.948222  -0.164427  0.271733  0
0.087388  0.057005  0.994542  0
0.704176  -0.420542  0.572084  0
0.994805  -0.000209  -0.101799  0
0.837177  -0.051831  -0.544470  0
0.964121  0.194636  0.180522  0
-0.861992  0.175959  0.475404  0
-0.963940  -0.026845  -0.264762  0
-0.171724  0.827764  -0.534151  0
-0.996250  0.015785  0.085064  0
-0.020596  0.261028  0.965111  0
-0.898461  -0.082234  0.431284  0
-0.944124  -0.329008  -0.019557  0
-0.614806  -0.597025  -0.515339  0
-0.720963  -0.690252  0.061346  0
0.179587  -0.706587  -0.684459  0
0.520688  -0.666786  -0.533180  0
0.950458  0.134814  0.280097  0
-0.915983  -0.375715  0.140757  0
0.445364  0.587775  0.675405  0
0.163169  0.928128  0.334595  0
-0.491372  -0.293126  0.820141  0
-0.971388  -0.223415  0.080566  0
-0.025115  0.399795  0.916260  0
0.534737  0.544532  0.646174  0
0.811436  0.227807  0.538216  0
-0.383898  -0.855830  -0.346667  0
-0.393501  -0.459363  0.796331  0
-0.293820  -0.944185  0.148943  0
-0.741259  -0.666944  -0.075634  0
0.426434  0.785793  0.447977  0
-0.677143  -0.653734  0.337802  0
-0.639940  0.054138  0.766516  0
-0.980238  0.138881  0.140875  0
0.578881  0.316676  0.751408  0
-0.741226  0.033868  0.670401  0
-0.720921  -0.553006  0.417680  0
-0.299404  -0.937463  0.177539  0
-0.641366  -0.517067  -0.566826  0
-0.482544  -0.036184  0.875124  0
0.862668  0.505063  -0.026741  0
0.723048  -0.686031  0.081011  0
0.942710  0.061314  0.327932  0
0.550027  0.827722  -0.111114  0
0.630064  0.768390  0.112231  0
-0.708876  0.248867  0.659969  0
-0.785137  -0.543152  0.297567  0
-0.930015  0.300511  0.211579  0
-0.866419  0.497603  -0.041336  0
-0.762666  -0.560318  0.323086  0
-0.670883  0.421870  0.609870  0
0.189431  0.055434  0.980328  0
0.577416  -0.540285  0.612113  0
0.377847  0.754281  -0.536928  0
0.991270  0.085427  0.100427  0
0.803684  -0.478479  0.353765  0
0.927753  -0.004561  -0.373168  0
0.877711  -0.363974  -0.311685  0
0.885700  0.462035  -0.045368  0
0.793536  -0.414823  -0.445222  0
0.992597  -0.102213  -0.065608  0
-0.647110  0.493604  -0.581037  0
0.423654  -0.473447  -0.772247  0
-0.557725  0.133858  -0.819161  0
0.700362  0.702470  0.126605  0
0.157165  0.940803  -0.300314  0
0.964561  -0.257451  -0.057795  0
0.663761  -0.259949  0.701319  0
-0.072181  0.240155  0.968047  0
-0.462589  -0.703990  0.538896  0
-0.092910  0.211459  0.972961  0
-0.960724  -0.143386  -0.237592  0
-0.441522  0.759410  0.477864  0
-0.338487  0.935999  -0.096603  0
-0.608420  -0.793542  -0.010770  0
-0.650886  -0.737538  0.179958  0
-0.573213  -0.238130  0.784042  0
0.394224  0.844769  0.361873  0
0.488747  -0.511850  -0.706496  0
-0.805184  -0.258278  0.533827  0
-0.582093  0.094567  -0.807604  0
-0.892175  0.335172  0.302794  0
0.221184  -0.299987  -0.927947  0
-0.509596  0.821819  0.254807  0
-0.760684  -0.526913  -0.379108  0
-0.515840  -0.850401  -0.103573  0
0.287972  0.503537  -0.814569  0
-0.751986  -0.520882  -0.403979  0
-0.455772  0.748591  0.481543  0
0.353434  0.722047  0.594754  0
-0.282639  -0.794593  -0.537342  0
-0.787753  0.495684  0.365710  0
-0.802883  0.594575  -0.043123  0
0.323348  -0.788052  -0.523850  0
-0.632996  -0.771324  0.066151  0
-0.152005  -0.687987  -0.709625  0
-0.211372  -0.441926  -0.871793  0
-0.779506  -0.465418  -0.419234  0
-0.826411  -0.489350  -0.278534  0
-0.735542  -0.296687  0.609060  0
-0.828331  0.404667  0.387443  0
-0.886009  -0.425048  -0.185264  0
-0.248716  -0.812165  0.527759  0
-0.496926  -0.863450  0.086709  0
-0.913824  -0.117124  0.388854  0
0.554546  -0.538650  -0.634299  0
-0.045721  0.369317  0.928178  0
0.519004  0.842899  0.141973  0
-0.432462  -0.880053  -0.196174  0
-0.417858  -0.575983  0.702594  0
-0.766352  -0.115442  0.631964  0
-0.376917  -0.797000  0.471937  0
-0.084980  0.186335  0.978804  0
0.672227  -0.538347  -0.508226  0
0.913541  0.099992  0.394265  0
-0.003362  0.829792  0.558062  0
0.952939  0.299362  0.047846  0
0.563134  0.476839  -0.674911  0
0.994357  -0.106048  -0.002984  0
0.596886  -0.702650  -0.387312  0
0.979467  0.111277  0.168114  0
0.998352  -0.038454  -0.042606  0
0.997024  -0.013987  -0.075806  0
0.156214  0.123343  -0.979992  0
0.624587  -0.147528  0.766894  0
0.499539  -0.263706  0.825179  0
0.558100  -0.568682  0.604257  0
0.902995  0.173209  -0.393191  0
-0.923384  0.023239  -0.383173  0
0.126755  -0.306722  -0.943321  0
0.732081  -0.511546  -0.449865  0
-0.197328  0.104678  -0.974733  0
0.530767  -0.700673  -0.476806  0
0.954369  -0.292153  0.061854  0
0.131152  0.442015  0.887368  0
-0.064940  0.459868  0.885610  0
0.185364  0.507876  0.841250  0
-0.770420  -0.330374  -0.545258  0
-0.758338  0.596031  0.263952  0
0.542261  0.252353  0.801419  0
-0.528795  0.375209  -0.761311  0
-0.227359  -0.011298  -0.973745  0
0.613474  -0.179942  -0.768941  0
0.504184  -0.644538  -0.574777  0
-0.102459  -0.652039  0.751230  0
-0.075811  -0.670906  -0.737657  0
-0.924508  -0.326095  0.197351  0
-0.350557  -0.464822  -0.813050  0
-0.931839  0.292863  -0.214261  0
-0.991158  0.017132  -0.131577  0
0.765619  -0.297518  -0.570360  0
-0.543543  -0.282386  -0.790455  0
0.627637  0.664587  -0.405459  0
0.177450  -0.493476  0.851465  0
0.510331  -0.564566  0.648712  0
0.516163  -0.100226  -0.850606  0
-0.338051  0.083531  -0.937413  0
0.958133  0.125970  -0.257122  0
0.950357  -0.308044  0.043933  0
0.396077  -0.106233  -0.912051  0
0.877849  -0.432984  0.204712  0
0.236309  -0.969640  -0.062899  0
0.515685  -0.691641  -0.505669  0
0.970261  0.154325  -0.186485  0
-0.216697  0.768385  0.602184  0
-0.170415  -0.327563  -0.929334  0
0.035176  -0.746231  -0.664757  0
0.014335  -0.135900  -0.990619  0
-0.634890  -0.756193  -0.158388  0
-0.604024  0.776179  -0.180836  0
0.594634  0.130018  0.793414  0
-0.174403  -0.757875  0.628657  0
0.265923  -0.721380  0.639450  0
0.401592  0.653935  0.641165  0
0.049825  0.994107  0.096278  0
0.483594  0.762451  0.429889  0
-0.533936  -0.714236  0.452525  0
0.263181  0.964431  -0.024690  0
0.007137  -0.909897  0.414774  0
-0.071174  0.989791  -0.123482  0
0.609238  0.779351  0.146425  0
-0.571494  0.510801  0.642243  0
-0.304442  0.644134  0.701717  0
-0.356771  -0.242198  0.902250  0
-0.657334  -0.488618  0.573729  0
0.341556  -0.164912  0.925280  0
-0.868486  0.165732  0.467188  0
-0.895321  -0.140145  0.422800  0
0.929441  0.151912  0.336246  0
0.973709  0.195569  0.116805  0
0.640176  0.702355  0.311243  0
0.212982  0.789370  0.575790  0
-0.459463  0.608328  0.647171  0
0.271878  0.741406  0.613514  0
0.123695  0.860094  0.494911  0
-0.792024  0.519385  -0.320838  0
-0.083524  0.995824  0.036864  0
-0.977877  0.206769  0.031674  0
-0.706375  -0.354153  -0.612870  0
-0.875969  0.047664  -0.480007  0
-0.894716  -0.264112  0.360178  0
0.371095  -0.098031  -0.923406  0
-0.931145  -0.280534  -0.232960  0
0.177402  -0.810621  -0.558053  0
0.553437  -0.552696  -0.623084  0
0.729834  -0.297820  -0.615341  0
-0.873484  -0.474717  -0.108024  0
-0.467390  0.252142  -0.847331  0
-0.240304  -0.439688  -0.865407  0
-0.381190  -0.870996  -0.309937  0
-0.384316  -0.749629  -0.538848  0
-0.788360  -0.475631  -0.390210  0
0.056617  -0.808530  -0.585725  0
-0.911987  -0.353743  0.207714  0
-0.366750  -0.923286  0.114184  0
-0.351406  -0.139677  0.925745  0
0.110181  0.443656  0.889398  0
-0.049381  0.849351  0.525514  0
-0.530872  -0.769782  0.354416  0
0.202877  -0.749299  -0.630391  0
0.998378  -0.050072  0.027103  0
0.759203  -0.612473  -0.220197  0
-0.975508  -0.021823  0.218880  0
-0.960425  -0.007660  0.278433  0
0.553098  0.815153  0.172071  0
0.996694  -0.029122  -0.075853  0
0.620847  -0.783262  0.032395  0
0.735775  0.654913  0.172410  0
0.980157  0.105279  0.167951  0
0.853628  0.113093  0.508457  0
0.996958  0.008302  -0.077498  0
0.999525  0.007965  -0.029761  0
0.981134  -0.145166  0.127685  0
-0.878319  -0.063138  -0.473887  0
-0.066105  0.296113  -0.952863  0
0.110021  -0.594505  -0.796529  0
-0.224960  0.351398  -0.908797  0
-0.693633  -0.228599  -0.683093  0
-0.686660  0.386359  0.615812  0
0.891343  0.089081  0.444490  0
-0.118043  0.569777  0.813278  0
-0.101360  0.569927  0.815420  0
0.386970  0.819749  0.422215  0
-0.631214  0.468148  0.618390  0
-0.499486  -0.543627  -0.674525  0
-0.780243  0.315168  0.540268  0
-0.989550  0.044738  -0.137074  0
-0.926728  0.037645  -0.373844  0
0.737436  0.534917  -0.412374  0
0.405090  -0.788907  -0.462091  0
0.433874  0.616463  -0.657059  0
0.312195  0.110455  -0.943575  0
-0.806383  -0.531271  -0.259802  0
0.245597  0.267084  -0.931852  0
0.135423  0.642429  -0.754285  0
0.827880  0.387210  -0.405811  0
0.377667  0.342839  0.860133  0
0.895925  0.226946  -0.381857  0
-0.978504  -0.143671  -0.147949  0
0.257750  0.966173  0.008628  0
0.345964  0.938178  -0.011437  0
-0.371849  0.761114  0.531445  0
-0.920452  -0.238474  -0.309674  0
-0.988892  0.109879  -0.100096  0
-0.784616  -0.301280  -0.541856  0
-0.739017  -0.564845  -0.367156  0
-0.282422  0.957289  0.061938  0
-0.418843  0.905729  -0.065000  0
-0.888210  0.131694  0.440158  0
0.587512  0.017604  0.809024  0
-0.111300  0.015748  0.993662  0
0.149816  0.872311  0.465434  0
0.215642  0.675282  0.705331  0
-0.448370  0.154417  0.880409  0
-0.748030  0.593916  0.296166  0
-0.880555  -0.429529  0.200321  0
-0.617856  -0.769286  0.162644  0
-0.547548  0.826260  0.132235  0
-0.341519  0.754373  0.560612  0
0.633669  0.247374  0.732987  0
-0.802495  -0.593661  0.059735  0
-0.531748  -0.769578  0.353544  0
-0.621262  -0.781434  0.058273  0
-0.359910  -0.842443  -0.400942  0
0.023804  -0.752227  0.658474  0
-0.544790  0.836174  0.063378  0
-0.330903  -0.900031  -0.283632  0
-0.629895  -0.746510  0.214372  0
0.465371  -0.176507  0.867338  0
0.804237  0.031832  -0.593456  0
0.593459  -0.024122  -0.804503  0
0.705300  -0.704831  -0.075929  0
0.931299  0.290521  -0.219725  0
0.176771  -0.762182  -0.622761  0
0.672013  -0.211585  0.709669  0
0.673979  -0.710464  -0.202467  0
0.997164  0.054986  -0.051383  0
0.657399  -0.202574  0.725803  0
-0.568128  -0.806194  0.165171  0
-0.891607  0.120001  0.436620  0
-0.875844  0.384021  -0.292274  0
-0.210040  0.078330  0.974550  0
-0.875597  -0.411954  0.252239  0
0.193833  0.227779  0.954225  0
0.116611  0.521433  0.845287  0
0.996450  0.083954  0.006180  0
0.789319  0.594736  -0.152529  0
0.885562  -0.161405  -0.435578  0
0.998640  0.049787  -0.015498  0
0.998568  -0.002137  -0.053448  0
0.940563  0.168261  -0.295007  0
0.920412  0.312729  0.234612  0
0.953609  -0.236910  -0.185751  0
0.751417  -0.567560  -0.336523  0
0.651987  0.531281  0.540975  0
0.035388  0.580874  0.813224  0
0.584553  0.566169  0.581163  0
0.963052  0.122734  -0.239723  0
-0.075735  -0.889961  0.449704  0
-0.208935  -0.862961  0.460048  0
-0.498257  0.578489  -0.645825  0
-0.111084  0.519899  -0.846974  0
-0.615658  0.260236  -0.743803  0
-0.432842  0.397492  -0.809103  0
-0.752648  0.269987  -0.600523  0
-0.157280  -0.162059  -0.974166  0
0.926416  0.049980  -0.373169  0
0.902472  0.333053  -0.273166  0
-0.930216  -0.150766  0.334617  0
-0.794694  0.515469  -0.320551  0
-0.486630  -0.516843  -0.704319  0
-0.309030  0.647798  0.696318  0
-0.926584  0.032301  -0.374697  0
0.092028  -0.547688  -0.831606  0
0.326031  -0.692639  -0.643394  0
-0.598264  -0.316355  0.736206  0
-0.940148  0.318452  -0.121287  0
-0.943497  0.326716  -0.055406  0
-0.522961  -0.463582  -0.715264  0
-0.296667  -0.049892  0.953677  0
0.374340  0.697438  0.611105  0
0.770310  0.509432  0.383538  0
-0.790405  -0.590946  -0.161377  0
-0.840389  -0.467254  0.274626  0
-0.992556  -0.121173  0.012266  0
-0.997650  -0.063824  0.024909  0
-0.796736  0.115085  0.593268  0
-0.861673  -0.252691  0.440076  0
-0.584588  0.673093  -0.452993  0
-0.313282  0.919221  0.238511  0
-0.100378  -0.868833  -0.484823  0
-0.614259  0.773059  0.158318  0
-0.087205  0.428104  0.899512  0
0.010046  0.481321  0.876487  0
-0.324429  0.593661  0.736419  0
-0.241777  -0.329349  -0.912728  0
0.334015  -0.627353  0.703464  0
-0.889750  0.178571  -0.420068  0
-0.752035  0.328299  -0.571544  0
-0.705221  -0.314646  -0.635343  0
-0.052178  -0.817486  -0.573580  0
-0.681907  0.218644  0.697996  0
-0.397629  0.720534  0.568087  0
-0.093121  0.430565  0.897743  0
-0.315814  0.607955  0.728459  0
-0.581596  -0.404211  -0.705946  0
-0.146499  -0.962288  -0.229217  0
-0.600786  -0.706585  0.373890  0
0.592283  -0.714260  0.372872  0
0.588853  0.442679  0.676230  0
0.998701  -0.012581  0.049369  0
0.695819  -0.650382  0.304697  0
0.064193  -0.869407  0.489910  0
-0.707950  0.022103  -0.705917  0
-0.671095  -0.638021  0.377571  0
0.712403  -0.667814  0.215655  0
0.373884  0.143716  -0.916273  0
-0.019066  0.913094  -0.407302  0
0.532479  0.157340  -0.831691  0
0.924625  0.296190  -0.239458  0
0.642649  0.435328  0.630470  0
0.627823  -0.681893  0.375314  0
0.865809  -0.460978  0.194614  0
-0.075934  -0.977781  0.195393  0
-0.743628  -0.113477  0.658894  0
0.898918  -0.243010  0.364544  0
-0.634841  0.269224  0.724221  0
0.921420  -0.010101  0.388437  0
0.699966  -0.120011  -0.704021  0
0.868250  -0.415688  -0.270824  0
-0.176600  -0.307333  0.935071  0
0.449777  -0.804109  0.388728  0
0.102932  -0.912998  -0.394764  0
0.087323  -0.828090  -0.553752  0
0.981767  -0.171020  -0.082976  0
0.966968  -0.228319  0.113327  0
0.975456  0.157184  0.154206  0
0.867195  -0.163341  -0.470418  0
0.993236  -0.036678  0.110169  0
0.990841  0.039019  -0.129271  0
0.635266  0.713695  -0.295086  0
0.753238  -0.651973  -0.086972  0
0.895755  0.409630  -0.172705  0
-0.978687  0.161366  -0.127013  0
0.173070  -0.058904  -0.983147  0
0.779059  -0.031807  0.626144  0
0.166254  -0.229833  -0.958925  0
0.349640  -0.529335  -0.773017  0
0.484685  -0.754526  0.442460  0
0.656385  0.685901  0.314163  0
0.691203  -0.359794  -0.626728  0
0.449342  -0.445165  -0.774545  0
-0.234307  -0.612689  -0.754793  0
-0.859858  -0.267671  -0.434736  0
-0.005233  0.544070  0.839023  0
-0.697859  -0.198661  -0.688133  0
-0.845856  0.201385  -0.493935  0
-0.209399  -0.208756  -0.955287  0
-0.882926  0.448873  0.137676  0
-0.006627  -0.467543  -0.883945  0
-0.366273  -0.866650  -0.338765  0
0.062265  -0.383965  -0.921246  0
-0.733452  -0.269650  0.623968  0
-0.465867  0.330447  -0.820837  0
-0.969884  0.059886  0.236092  0
-0.974337  -0.190720  0.119553  0
0.717498  -0.310626  -0.623465  0
-0.977493  0.104171  -0.183456  0
-0.526539  -0.774238  -0.351157  0
-0.052472  0.196031  -0.979193  0
0.105681  -0.012539  -0.994321  0
-0.116831  0.377425  0.918641  0
0.966083  0.258081  0.008820  0
0.546683  0.603821  -0.580118  0
0.238576  0.173052  -0.955581  0
0.162218  -0.232048  -0.959082  0
0.689918  0.634102  0.349181  0
0.903005  0.324512  0.281557  0
0.544893  0.573062  0.612121  0
0.964011  -0.163311  -0.209791  0
0.996874  -0.010750  0.078271  0
0.220464  -0.955699  -0.195028  0
-0.010437  -0.593166  -0.805012  0
0.309098  0.211401  -0.927237  0
0.764152  0.389561  -0.514116  0
0.430137  0.646388  0.630211  0
-0.004110  0.580705  0.814103  0
-0.255495  -0.764378  -0.591987  0
-0.957115  -0.276469  -0.086584  0
-0.468574  0.555211  0.687154  0
-0.354115  0.502225  0.788905  0
-0.675614  -0.724817  0.134852  0
-0.911956  0.067560  -0.404687  0
-0.307768  -0.929521  0.203146  0
-0.031867  -0.985676  0.165613  0
-0.542037  -0.167074  0.823579  0
-0.249934  -0.892988  0.374307  0
0.153062  0.902101  0.403468  0
-0.996004  -0.056272  -0.069345  0
-0.173172  0.831769  0.527419  0
-0.952781  0.155625  -0.260749  0
-0.911203  0.160519  0.379399  0
-0.803205  -0.003263  0.595695  0
-0.561914  0.534385  0.631416  0
0.000304  0.505353  0.862912  0
-0.351804  -0.040200  -0.935210  0
-0.330256  -0.607014  -0.722818  0
-0.903683  -0.289717  -0.315310  0
-0.750675  0.547161  -0.370272  0
-0.157522  -0.376476  -0.912936  0
-0.766995  -0.428672  0.477451  0
-0.939389  -0.253602  -0.230727  0
-0.846001  -0.520061  0.117555  0
0.657310  -0.004914  0.753604  0
0.259951  -0.402443  0.877761  0
-0.248411  -0.942807  0.222278  0
-0.766051  -0.586626  0.262746  0
-0.449249  -0.851018  -0.271925  0
0.270556  -0.122850  0.954834  0
0.456621  -0.348487  0.818568  0
0.861575  -0.203421  -0.465090  0
0.717829  -0.015911  0.696038  0
0.971090  -0.161695  -0.175609  0
0.995796  0.016139  -0.090165  0
0.952185  -0.051562  -0.301141  0
0.998377  -0.046476  -0.032924  0
-0.428247  0.812706  -0.395112  0
-0.607148  0.651347  -0.455103  0
-0.373024  0.546990  -0.749437  0
-0.537554  -0.376912  -0.754303  0
-0.951508  -0.062244  0.301261  0
-0.741029  -0.426680  -0.518479  0
-0.524305  -0.589691  0.614303  0
-0.324774  -0.765451  0.555524  0
-0.232661  -0.812485  0.534545  0
0.295443  -0.227544  -0.927867  0
0.387968  -0.328974  -0.860963  0
0.624489  -0.189572  -0.757678  0
-0.808145  -0.587583  0.040601  0
0.152019  0.580229  0.800141  0
-0.382359  0.835022  0.395652  0
0.120598  0.030387  0.992236  0
-0.447869  0.505195  0.737693  0
0.796555  0.350081  0.492894  0
0.871207  0.040232  0.489264  0
0.844343  0.343633  0.411099  0
-0.560777  -0.788474  -0.252663  0
-0.651288  -0.644475  -0.400594  0
-0.819121  -0.569840  -0.065747  0
-0.486361  -0.849568  -0.204175  0
-0.640478  -0.767045  -0.037817  0
-0.481926  -0.821594  -0.304517  0
-0.502576  -0.843829  -0.188068  0
-0.944786  -0.158994  0.286532  0
-0.944781  0.101215  0.311679  0
-0.657430  -0.674245  0.336422  0
-0.843301  -0.494806  0.209785  0
-0.596988  -0.781188  -0.182620  0
-0.626418  -0.670795  -0.397033  0
-0.487388  -0.762097  -0.426219  0
0.630007  0.502982  0.591692  0
0.844797  0.499210  0.192634  0
0.218500  0.505886  0.834468  0
-0.088361  0.816771  0.570155  0
0.289598  0.832368  0.472543  0
-0.627900  -0.509042  0.588743  0
-0.943504  0.281951  0.174079  0
0.187809  0.598783  0.778580  0
0.130713  0.966665  0.220167  0
-0.641163  -0.690095  0.335677  0
-0.450309  -0.170595  0.876424  0
0.038814  0.023541  0.998969  0
0.874620  0.210152  0.436894  0
0.970173  -0.180689  0.161602  0
0.344122  0.905840  -0.247050  0
0.633118  0.355500  -0.687591  0
0.980193  -0.194685  0.036325  0
0.901727  -0.430307  -0.041529  0
0.944702  0.182073  -0.272740  0
0.978120  -0.151129  0.142971  0
0.996953  -0.054559  -0.055750  0
-0.928649  0.332577  0.164326  0
0.129175  0.444835  -0.886248  0
-0.461293  0.632784  -0.621927  0
0.954305  -0.235896  0.183454  0
0.981130  -0.082694  0.174771  0
0.703525  -0.658539  0.267167  0
0.753073  -0.468292  0.462151  0
-0.777822  0.004944  0.628465  0
-0.196101  0.473289  0.858802  0
-0.570764  -0.013855  0.820997  0
-0.882456  0.025542  -0.469701  0
-0.759897  0.622093  -0.188565  0
-0.803513  0.118218  0.583430  0
-0.717030  0.456437  0.526814  0
-0.618964  -0.415939  0.666242  0
-0.445346  0.026099  0.894978  0
-0.082613  0.709433  0.699914  0
0.625180  -0.366406  -0.689127  0
0.196987  -0.122103  -0.972773  0
0.621825  -0.259752  -0.738825  0
0.002779  -0.057993  -0.998313  0
0.596784  0.122834  -0.792944  0
-0.462683  0.817377  0.343248  0
-0.989595  -0.032898  0.140073  0
-0.878735  0.475268  0.044099  0
-0.251667  0.457164  -0.853033  0
-0.176650  0.833995  -0.522730  0
-0.909022  0.155267  0.386744  0
-0.768771  -0.110126  0.629971  0
-0.873942  0.485814  0.014494  0
-0.748277  -0.128816  -0.650760  0
-0.628787  0.776424  0.042340  0
-0.308716  -0.757830  -0.574794  0
0.161570  -0.635187  -0.755270  0
-0.224621  -0.439236  -0.869837  0
-0.161470  -0.700443  -0.695203  0
-0.878132  -0.394037  -0.271330  0
-0.942426  -0.313685  -0.115908  0
-0.963846  0.058061  0.260056  0
-0.872685  0.163708  0.460022  0
-0.702023  0.502066  0.505067  0
-0.535101  0.174676  0.826532  0
-0.751632  0.299899  0.587461  0
-0.437316  -0.759484  -0.481601  0
0.289909  -0.696613  -0.656264  0
0.976498  0.146026  -0.158520  0
0.927183  -0.090923  -0.363407  0
-0.808098  -0.474705  -0.348760  0
-0.590764  -0.790809  0.160062  0
-0.780388  -0.613793  0.119384  0
-0.466953  0.025338  0.883919  0
-0.455897  -0.289869  0.841507  0
0.872261  -0.410387  -0.265977  0
0.987146  0.159492  -0.010277  0
0.383712  0.881615  0.274807  0
0.561395  -0.819510  -0.115064  0
0.948331  0.199894  0.246393  0
-0.238423  -0.922626  -0.303177  0
-0.593649  -0.798332  -0.101230  0
0.859269  0.293585  0.418885  0
0.999912  0.003051  0.012936  0
0.888151  0.241663  0.390879  0
0.269101  0.168758  -0.948212  0
0.402672  0.103314  -0.909495  0
-0.018285  0.248455  -0.968471  0
0.159061  0.382480  -0.910170  0
0.837457  0.082187  -0.540287  0
-0.268496  -0.034724  -0.962655  0
-0.553230  0.047985  -0.831645  0
0.862316  -0.159941  -0.480447  0
0.159708  -0.324128  -0.932435  0
0.463379  -0.649275  -0.603094  0
0.648936  -0.516832  -0.558360  0
0.400346  0.326520  0.856217  0
0.992290  -0.001614  0.123928  0
0.788954  0.291783  0.540754  0
-0.319715  0.647250  0.691990  0
0.622959  0.251912  0.740582  0
0.459812  0.428799  0.777627  0
0.538820  0.780730  -0.316440  0
0.748412  0.463369  -0.474519  0
-0.037306  0.364132  -0.930600  0
0.976835  0.028300  -0.212114  0
-0.624925  -0.778181  -0.062472  0
-0.605309  -0.566377  -0.559302  0
-0.498416  -0.192698  -0.845251  0
-0.711363  -0.541076  -0.448552  0
-0.931970  0.110947  0.345142  0
-0.860809  0.063801  0.504914  0
-0.806621  -0.219425  -0.548831  0
-0.887307  0.390668  0.245081  0
0.774195  0.062275  -0.629876  0
0.571542  -0.480845  0.664927  0
0.435548  -0.523046  0.732612  0
0.307970  -0.205484  -0.928941  0
0.754483  -0.352891  -0.553374  0
0.279353  0.001409  -0.960187  0
0.253640  -0.130986  -0.958389  0
0.154382  -0.241790  -0.957969  0
0.879153  -0.463814  0.109391  0
0.789035  -0.587060  -0.181064  0
0.773835  -0.630917  -0.055881  0
0.588828  -0.112825  -0.800345  0
0.339748  -0.225036  -0.913198  0
-0.669058  -0.168994  -0.723742  0
-0.261789  -0.448286  -0.854697  0
-0.365309  -0.130350  -0.921715  0
-0.262813  -0.930301  0.255869  0
-0.521449  -0.296515  0.800106  0
-0.471520  -0.202728  0.858237  0
0.326427  0.917217  0.228384  0
0.059334  0.735703  0.674701  0
-0.360465  -0.140656  0.922107  0
-0.120358  -0.784631  0.608167  0
0.046880  -0.343704  0.937907  0
0.854515  0.506708  0.114242  0
0.862221  0.360083  0.356253  0
0.734299  0.237427  0.635951  0
-0.601495  -0.798388  -0.027927  0
-0.845915  -0.524739  0.095268  0
-0.164938  -0.950439  0.263554  0
-0.254843  -0.965071  0.060772  0
0.327377  0.936467  0.125910  0
0.221530  0.974571  0.033694  0
0.095871  0.993952  0.053560  0
0.277745  0.900088  0.335708  0
0.267559  0.951490  0.151919  0
0.564069  0.820316  0.094386  0
0.588614  0.725838  0.355939  0
0.076000  0.951950  0.296673  0
0.205070  0.943623  0.259850  0
0.115608  0.812102  0.571949  0
-0.403370  -0.884302  0.235165  0
-0.408523  -0.888671  0.208260  0
-0.592095  -0.118569  0.797098  0
0.215194  0.930865  0.295264  0
-0.057487  -0.262121  0.963321  0
-0.325665  0.247355  0.912556  0
0.277048  0.935945  0.217374  0
-0.478661  0.740114  0.472351  0
0.081164  0.839399  0.537422  0
-0.651431  0.147130  0.744305  0
-0.004153  0.983310  0.181893  0
0.822538  0.554761  -0.125183  0
-0.460696  0.738611  0.492151  0
-0.264318  0.879907  0.394842  0
-0.700513  0.631595  0.332219  0
-0.620824  0.585119  0.521740  0
-0.011536  0.720800  0.693047  0
-0.408885  0.629244  0.660958  0
0.515836  0.855406  0.046830  0
0.400374  0.902627  0.158006  0
-0.228438  0.858296  0.459504  0
-0.251055  0.808497  0.532264  0
-0.867044  0.388519  -0.311909  0
-0.346358  0.934547  -0.081601  0
-0.136483  0.938868  -0.316069  0
-0.830418  0.433290  0.350238  0
-0.641947  0.722817  0.255810  0
-0.969509  0.150439  0.193444  0
0.355088  0.816119  0.455920  0
-0.964844  0.260791  -0.032628  0
-0.066972  0.972942  0.221130  0
-0.396672  0.914481  -0.079849  0
0.622525  0.533828  -0.572267  0
0.451020  0.307141  -0.838001  0
0.307021  -0.615674  -0.725729  0
0.568298  -0.487063  -0.663179  0
0.843586  -0.146657  -0.516579  0
0.532950  -0.645961  -0.546534  0
0.597127  -0.505158  -0.623101  0
0.591106  -0.196129  -0.782386  0
-0.722062  -0.691820  0.003283  0
-0.445511  0.134221  -0.885158  0
-0.172921  -0.982290  0.072144  0
0.217218  0.498439  -0.839270  0
-0.084059  -0.679737  -0.728623  0
0.382422  0.138893  -0.913489  0
0.045833  -0.610999  -0.790303  0
0.065057  -0.927233  -0.368790  0
0.085661  -0.840912  -0.534349  0
-0.538582  -0.771170  -0.339450  0
-0.164661  -0.951093  0.261361  0
-0.789446  0.314070  0.527384  0
-0.122045  -0.964439  0.234442  0
-0.264241  -0.853188  0.449719  0
-0.107569  -0.992169  0.063481  0
0.283527  -0.235544  0.929587  0
0.002176  0.701293  0.712870  0
0.355157  0.461523  0.812933  0
-0.798118  -0.146802  0.584344  0
-0.477115  0.190179  0.858017  0
-0.583573  -0.765692  0.270477  0
-0.137069  -0.936006  -0.324197  0
0.643834  -0.759396  -0.093790  0
-0.010316  -0.778518  -0.627537  0
0.110318  -0.909386  -0.401057  0
-0.819611  0.142649  0.554878  0
-0.566653  0.441074  0.695958  0
-0.850254  0.305889  0.428368  0
-0.965415  -0.058737  0.254014  0
-0.905428  0.199913  0.374479  0
0.947619  -0.319004  -0.015981  0
0.990033  -0.117965  0.076940  0
0.790932  -0.605200  0.090333  0
0.972434  0.009867  0.232970  0
0.634261  0.715206  0.293586  0
0.993738  -0.053291  0.098213  0
0.994604  -0.101728  0.020365  0
0.476077  0.423682  0.770613  0
0.998589  0.022376  -0.048160  0
0.934552  0.193770  0.298440  0
-0.108920  -0.174768  0.978567  0
0.885222  -0.023161  0.464591  0
0.490313  0.140436  0.860158  0
0.996745  -0.080506  0.004368  0
0.535282  -0.017454  0.844493  0
-0.028262  -0.466326  -0.884161  0
-0.834395  -0.191541  -0.516814  0
0.500502  -0.525699  -0.687851  0
0.347545  0.288796  -0.892082  0
0.753603  -0.334131  -0.566073  0
-0.009287  0.684288  -0.729153  0
-0.602388  0.415455  -0.681561  0
-0.154726  -0.251609  -0.955381  0
-0.987271  -0.158806  0.008713  0
-0.355474  0.563962  0.745376  0
-0.997295  -0.050563  -0.053349  0
-0.827871  0.182128  -0.530528  0
-0.885326  0.447436  0.126485  0
-0.490331  0.851111  0.187578  0
0.255204  0.752030  0.607719  0
0.183688  0.977549  0.103229  0
-0.024164  0.826680  0.562153  0
-0.590009  0.728996  0.347064  0
-0.184221  0.638037  0.747644  0
0.125338  0.513252  0.849036  0
-0.170719  0.129568  0.976764  0
-0.493772  0.264065  0.828528  0
-0.887818  0.041563  -0.458315  0
-0.481130  0.557662  0.676408  0
0.584751  -0.620990  -0.521956  0
0.512023  -0.853747  -0.094594  0
0.036149  -0.835429  -0.548408  0
-0.518859  -0.654989  -0.549340  0
0.278665  -0.060319  -0.958492  0
-0.232281  0.185878  -0.954723  0
0.147477  0.540297  -0.828450  0
-0.289635  0.388804  -0.874610  0
0.558886  -0.158986  -0.813861  0
0.499070  0.307247  -0.810265  0
0.851651  0.218178  -0.476538  0
0.277975  0.075903  0.957585  0
0.918613  -0.371579  0.134459  0
-0.063382  0.363586  0.929402  0
0.012089  0.545474  0.838041  0
0.212194  0.553127  0.805621  0
-0.965335  -0.191396  0.177469  0
-0.274213  0.954485  -0.117327  0
-0.236103  0.971290  0.029181  0
0.084363  0.621511  0.778850  0
0.188575  0.920349  0.342634  0
-0.393401  0.758100  0.520115  0
-0.860748  0.206300  0.465353  0
-0.980189  0.177447  -0.087987  0
-0.215928  0.965466  -0.145775  0
-0.421307  0.757396  -0.498850  0
-0.908072  0.341815  -0.242007  0
-0.685470  0.657645  0.312464  0
-0.843335  -0.446889  -0.298457  0
-0.994637  -0.101335  -0.020726  0
-0.641058  -0.725398  -0.250686  0
-0.615521  -0.023424  0.787772  0
-0.630457  0.700108  0.335222  0
-0.182003  0.623387  0.760436  0
0.783290  -0.024937  0.621156  0
0.178213  0.428230  0.885923  0
0.616122  0.108496  0.780142  0
-0.311971  0.910754  -0.270557  0
0.652522  -0.127176  0.747021  0
0.586598  -0.061223  0.807561  0
0.627782  0.075882  0.774681  0
0.222077  0.792192  0.568431  0
-0.528255  -0.847398  0.053511  0
0.056799  0.284570  0.956971  0
-0.337618  -0.176128  0.924658  0
-0.028371  0.614313  0.788553  0
-0.579322  -0.647391  0.495248  0
0.183522  0.938977  -0.290932  0
-0.368130  0.923591  0.107047  0
0.244650  0.941749  -0.230771  0
0.427588  0.826991  0.365040  0
0.302644  0.771870  0.559128  0
-0.213716  0.798683  0.562521  0
-0.804099  -0.593448  -0.035278  0
-0.689110  0.539440  0.483871  0
-0.962977  -0.012061  0.269315  0
0.200369  0.956359  0.212674  0
-0.599608  -0.798322  0.056146  0
-0.547505  0.437844  0.713113  0
-0.630579  -0.740041  0.233901  0
-0.757201  -0.523280  0.390928  0
0.575506  0.516311  0.634204  0
-0.187113  -0.458961  0.868529  0
0.319802  0.513636  0.796181  0
-0.239083  0.869791  0.431629  0
-0.328232  0.077165  0.941440  0
-0.740852  0.349999  0.573270  0
-0.661783  -0.587466  -0.465753  0
-0.936039  0.115065  0.332552  0
-0.015159  -0.829725  0.557966  0
0.010048  -0.975646  0.219120  0
-0.029170  -0.993387  0.111045  0
-0.670969  -0.668654  -0.320472  0
-0.946972  -0.243588  0.209546  0
-0.639515  0.768140  0.031333  0
-0.954422  0.110115  -0.277406  0
-0.837428  0.538064  -0.095927  0
-0.540727  -0.810242  -0.226101  0
-0.673451  0.724909  0.144809  0
-0.026743  0.174443  0.984304  0
0.034740  0.240358  0.970062  0
0.298822  0.092045  0.949859  0
0.365835  0.273632  0.889545  0
0.758720  -0.068460  0.647809  0
0.890697  0.031470  -0.453507  0
0.945249  0.246442  0.213941  0
0.795447  0.437249  -0.419615  0
0.899851  0.432715  -0.055003  0
0.950704  0.252885  0.179474  0
0.735432  -0.470151  -0.487953  0
0.990071  0.105079  0.093367  0
-0.431398  -0.552245  0.713387  0
0.196898  -0.120858  0.972946  0
-0.415751  -0.691894  0.590283  0
0.417029  -0.480122  0.771732  0
0.822035  -0.399009  0.406263  0
-0.220233  -0.971283  0.090034  0
-0.235205  -0.961643  -0.141147  0
0.893229  -0.447102  -0.047349  0
0.559103  0.828968  0.014703  0
0.727334  0.411921  0.548914  0
-0.724991  -0.686286  0.058309  0
-0.745384  -0.659597  0.096612  0
-0.721653  -0.061272  0.689538  0
0.354213  -0.036981  0.934433  0
0.133947  0.085465  0.987296  0
-0.444677  0.191972  0.874877  0
-0.972510  0.137512  -0.187923  0
-0.995166  0.018867  -0.096375  0
-0.975223  0.121687  -0.184749  0
-0.186292  0.502726  0.844134  0
0.327383  0.453855  0.828756  0
-0.966395  0.202007  0.158976  0
-0.684601  -0.233985  0.690342  0
-0.975668  0.192810  -0.104387  0
0.311000  0.680412  0.663565  0
0.034351  0.589211  0.807249  0
-0.322002  0.262140  0.909724  0
-0.550196  0.449785  0.703547  0
-0.597240  0.390320  0.700682  0
0.791487  0.298326  0.533432  0
0.083074  0.359579  0.929409  0
0.496322  -0.706815  0.504060  0
0.994783  0.082599  -0.059861  0
0.817453  -0.469604  0.333530  0
0.947897  0.291527  -0.128465  0
0.985997  -0.136627  0.095616  0
0.852032  0.060294  -0.520006  0
0.992757  -0.084343  0.085558  0
0.661666  0.747378  -0.060207  0
0.995229  -0.093910  0.026462  0
0.969323  -0.241177  -0.047397  0
0.993962  0.069788  0.084669  0
0.995014  0.034205  0.093690  0
0.930794  0.175865  -0.320460  0
0.669706  -0.706865  -0.227675  0
0.657571  -0.681994  -0.320132  0
0.703341  -0.391803  -0.593129  0
0.599272  -0.570577  -0.561530  0
0.876831  -0.237924  -0.417804  0
-0.022426  0.558507  0.829197  0
0.790101  0.345999  0.505989  0
0.066136  0.522374  0.850148  0
0.960859  -0.110786  -0.253921  0
0.949856  -0.311737  -0.024376  0
0.891599  -0.135831  -0.431973  0
0.848833  0.346245  -0.399496  0
0.853119  -0.373101  -0.364670  0
0.977011  -0.210893  -0.031203  0
-0.874993  -0.451559  0.174592  0
-0.554220  -0.747102  -0.366986  0
0.070279  -0.091469  -0.993325  0
0.072603  -0.692765  -0.717500  0
-0.143329  0.359262  -0.922165  0
-0.740156  -0.488596  -0.461998  0
-0.933014  -0.351417  -0.077404  0
-0.606864  0.020161  -0.794550  0
-0.214905  0.858205  0.466155  0
0.004458  0.844653  0.535296  0
0.325938  0.700679  0.634676  0
0.826956  0.354247  -0.436637  0
-0.527764  0.453330  -0.718302  0
0.103094  -0.135428  -0.985409  0
0.854511  -0.184019  -0.485745  0
-0.617057  0.179551  -0.766160  0
-0.509136  0.219786  -0.832151  0
0.948693  0.138821  -0.284095  0
0.281059  0.593555  -0.754121  0
0.881885  0.098412  0.461080  0
0.425650  0.318195  -0.847098  0
0.982481  -0.081111  -0.167787  0
-0.419054  0.861146  0.287787  0
-0.381868  0.870679  0.309992  0
-0.861369  -0.289267  0.417574  0
-0.608102  0.221408  0.762359  0
-0.667083  -0.718593  0.196533  0
-0.956991  0.127338  -0.260678  0
-0.140394  0.935283  -0.324861  0
-0.640387  -0.628525  -0.441432  0
-0.505124  0.228697  -0.832195  0
-0.761495  0.403961  -0.506894  0
-0.511074  0.782497  0.355671  0
-0.830161  0.521250  0.197817  0
-0.670457  0.672712  0.312965  0
-0.778184  -0.560314  -0.283686  0
0.054906  -0.318043  -0.946485  0
0.033756  -0.866298  -0.498385  0
0.111189  -0.765366  -0.633918  0
0.058792  -0.901979  -0.427758  0
-0.886893  -0.404187  -0.223729  0
-0.321897  -0.897311  0.302018  0
-0.687478  -0.024700  0.725785  0
-0.415317  -0.454505  0.787995  0
0.088693  0.250009  0.964173  0
-0.730547  0.080943  0.678048  0
-0.037699  -0.401022  0.915293  0
0.471463  0.731422  0.492691  0
-0.010512  0.316362  0.948580  0
0.754906  0.655716  -0.012422  0
0.894719  0.446606  0.004573  0
0.754457  0.654722  -0.046200  0
-0.968612  -0.143336  -0.203091  0
-0.816636  -0.572360  0.074225  0
-0.864215  0.083764  0.496101  0
-0.826362  -0.184009  0.532228  0
-0.920497  0.074051  0.383668  0
-0.993140  -0.084212  0.081128  0
-0.971598  -0.233891  0.035957  0
-0.981983  -0.057372  -0.180048  0
-0.966769  -0.148125  -0.208367  0
-0.984941  0.108058  0.134963  0
-0.970408  0.128114  0.204681  0
-0.881229  0.321567  0.346454  0
-0.799454  0.246157  0.547978  0
-0.758488  0.522550  0.389405  0
-0.984031  0.177424  -0.014253  0
-0.209727  0.522791  0.826259  0
-0.910245  -0.237693  0.339052  0
-0.936288  -0.255809  0.240678  0
-0.721622  -0.470707  -0.507638  0
-0.575664  0.531816  -0.621114  0
-0.408542  0.594095  -0.692925  0
-0.232616  0.900183  -0.368186  0
-0.452418  0.741967  -0.494776  0
0.093415  0.390740  -0.915749  0
-0.152544  -0.816094  -0.557424  0
-0.324354  -0.780022  -0.535126  0
-0.186616  0.979109  0.080753  0
-0.686846  0.638914  -0.346455  0
-0.145368  0.911341  0.385130  0
-0.185464  0.704883  0.684648  0
0.101299  0.834880  0.541031  0
0.011565  0.703418  0.710683  0
0.145169  0.639408  0.755038  0
0.323348  0.621651  0.713439  0
0.296472  0.620618  0.725905  0
0.328674  0.663364  0.672250  0
-0.711477  0.499072  0.494700  0
0.189688  -0.687307  0.701162  0
-0.740109  -0.643719  0.194587  0
-0.828268  -0.185955  0.528576  0
-0.832597  -0.311844  0.457751  0
-0.795562  0.460897  0.393261  0
-0.469250  -0.848773  -0.243700  0
-0.140058  -0.806192  -0.574838  0
0.041170  -0.907947  -0.417057  0
-0.297979  -0.817189  -0.493367  0
-0.980517  0.115272  0.159056  0
-0.690901  -0.711023  -0.130776  0
-0.833817  -0.354197  0.423430  0
-0.628380  0.239670  0.740065  0
-0.431667  0.419737  0.798426  0
-0.339013  0.584238  0.737385  0
-0.316227  0.324720  0.891379  0
-0.173547  0.500263  0.848303  0
-0.471844  0.544647  0.693342  0
-0.246043  -0.466447  -0.849641  0
-0.459371  -0.626829  -0.629336  0
-0.292397  -0.629861  -0.719568  0
-0.231696  -0.586838  -0.775847  0
-0.347460  -0.641644  -0.683787  0
-0.789153  -0.611592  -0.056501  0
-0.773693  -0.440112  0.455741  0
-0.875590  0.183376  0.446895  0
0.488103  -0.815084  0.312079  0
0.394662  -0.911649  -0.114618  0
0.636287  -0.753275  0.166483  0
-0.034911  -0.868602  0.494280  0
0.763256  -0.644642  0.043328  0
0.313751  0.686073  0.656402  0
0.174098  0.647489  0.741922  0
0.543934  0.499678  0.674135  0
-0.327461  -0.864600  0.381099  0
0.935514  -0.291048  0.200263  0
0.865146  -0.463828  -0.190751  0
0.938519  -0.323449  -0.120680  0
0.861818  -0.465569  -0.201285  0
0.858394  -0.364231  0.361243  0
0.228445  -0.957153  0.177961  0
-0.986625  -0.122190  -0.107888  0
-0.763329  -0.137524  -0.631202  0
-0.586404  -0.626136  -0.513891  0
-0.165205  -0.925415  0.341050  0
0.753758  -0.655162  -0.051093  0
0.588288  0.797430  -0.134245  0
0.658259  0.568955  0.492935  0
-0.078707  0.655837  0.750788  0
0.278275  0.796980  0.536084  0
0.855288  0.478294  0.199292  0
0.852097  -0.172384  -0.494181  0
0.993418  -0.053069  -0.101515  0
0.471510  0.592331  0.653316  0
0.000201  0.829291  0.558816  0
0.306756  -0.224582  0.924913  0
0.600549  -0.780326  0.174449  0
0.873788  -0.476673  -0.096317  0
0.635062  -0.721149  0.276840  0
0.129926  -0.678267  0.723238  0
0.332176  -0.385818  0.860699  0
0.524814  -0.835270  0.163994  0
0.155328  -0.903250  0.400016  0
-0.510746  -0.857119  0.066977  0
-0.629682  -0.706813  -0.322359  0
-0.605560  -0.461980  -0.647975  0
-0.735479  -0.401627  0.545680  0
-0.542069  -0.385200  -0.746848  0
0.700455  -0.234950  -0.673915  0
0.806868  -0.206833  -0.553339  0
0.838283  -0.150482  -0.524059  0
-0.240493  0.507648  0.827319  0
-0.212116  0.274683  0.937847  0
-0.501127  0.209115  0.839727  0
-0.063480  0.189394  0.979847  0
0.193117  0.044944  0.980146  0
0.914552  0.316992  -0.251217  0
0.919877  -0.162472  -0.356971  0
0.774756  0.383617  -0.502585  0
0.638191  0.721893  -0.267547  0
0.697511  0.651126  -0.299186  0
0.942039  0.150522  0.299842  0
0.505601  -0.530999  0.680005  0
0.177072  -0.269089  0.946698  0
-0.111387  -0.496581  0.860813  0
0.852582  -0.036361  0.521327  0
-0.501602  -0.834735  -0.227185  0
0.304226  -0.753559  -0.582748  0
-0.216664  -0.591233  -0.776853  0
-0.233839  -0.863819  -0.446247  0
0.997963  0.062429  0.013154  0
0.998749  -0.007520  0.049441  0
0.999444  -0.031752  -0.010191  0
0.994746  -0.032636  -0.097031  0
0.873286  -0.321368  -0.366189  0
0.867000  -0.147624  -0.475940  0
0.989122  -0.002002  0.147084  0
0.858807  0.008977  -0.512221  0
0.930576  0.000002  0.366100  0
0.795753  0.042305  0.604142  0
0.760059  -0.090758  0.643485  0
0.781257  -0.095546  0.616854  0
0.981849  -0.000285  0.189662  0
0.999460  0.028754  0.015873  0
0.894430  0.171672  -0.412944  0
0.994122  0.083908  0.068420  0
0.999693  0.022510  0.010328  0
0.977980  -0.145819  0.149308  0
0.287620  0.845700  -0.449518  0
0.999569  0.017320  0.023720  0
0.953301  0.220842  -0.206023  0
0.794334  -0.165602  -0.584474  0
0.980875  0.178081  -0.078558  0
-0.650863  -0.625337  -0.430501  0
-0.459433  -0.786660  0.412416  0
-0.753427  -0.631146  -0.184400  0
-0.100512  -0.816312  -0.568798  0
-0.606026  -0.504191  -0.615244  0
0.256327  -0.267746  -0.928767  0
0.818861  0.514953  -0.253555  0
0.459823  0.652543  -0.602288  0
0.217921  -0.581247  -0.784004  0
0.282792  -0.386243  -0.877978  0
0.332570  -0.416061  -0.846340  0
0.655527  -0.474326  -0.587621  0
0.332456  -0.697792  -0.634476  0
0.792173  -0.608454  0.047391  0
0.390310  -0.901283  0.188010  0
0.137620  0.365339  0.920646  0
0.412629  0.173148  0.894291  0
-0.072076  0.620727  0.780707  0
0.044927  0.578559  0.814402  0
0.560385  0.239884  0.792732  0
0.993465  -0.113633  0.010688  0
0.129105  -0.445947  -0.885699  0
0.662249  -0.426164  -0.616288  0
-0.635175  0.504683  -0.584678  0
-0.570339  -0.550459  -0.609678  0
-0.806031  0.063515  -0.588456  0
-0.910900  -0.220765  -0.348603  0
-0.997579  0.016462  0.067571  0
-0.199552  0.280226  0.938963  0
-0.516352  0.622344  0.588276  0
-0.673318  0.655252  0.342473  0
0.807528  0.018657  0.589534  0
0.209127  0.798601  0.564360  0
-0.157056  0.951318  0.265195  0
-0.385500  -0.123765  -0.914370  0
-0.262831  0.131396  -0.955853  0
-0.245011  0.098944  -0.964458  0
-0.373913  -0.286583  -0.882077  0
-0.686631  0.706749  -0.170421  0
-0.786480  0.404771  -0.466487  0
-0.491684  0.452747  -0.743819  0
0.954465  -0.214343  0.207494  0
0.265081  -0.890322  -0.370214  0
0.882425  -0.460984  -0.093917  0
-0.418241  -0.327397  -0.847282  0
0.581200  -0.297894  -0.757276  0
-0.954092  0.282155  -0.100487  0
-0.972966  0.043177  0.226874  0
-0.752302  -0.078945  0.654072  0
0.252997  -0.428678  -0.867311  0
0.005670  -0.127600  -0.991809  0
-0.187540  -0.346074  -0.919272  0
-0.905464  -0.236137  0.352667  0
-0.426849  -0.397658  -0.812200  0
-0.551467  -0.687972  -0.471783  0
-0.981627  0.184288  -0.049469  0
-0.868697  0.057640  0.491979  0
-0.375283  -0.683863  -0.625695  0
0.355529  -0.404601  -0.842554  0
0.785192  -0.415423  -0.459235  0
0.108679  -0.390972  -0.913964  0
0.483041  -0.696911  -0.530082  0
-0.691502  -0.486092  -0.534358  0
0.726976  -0.621101  -0.292814  0
0.775401  -0.359395  -0.519218  0
0.784410  -0.172429  -0.595792  0
0.900251  -0.259909  -0.349278  0
0.194609  -0.106642  -0.975067  0
0.896134  -0.362931  -0.255392  0
0.644529  0.080628  -0.760316  0
0.670254  0.741831  -0.021142  0
0.538563  0.763344  0.356729  0
0.993362  -0.110948  0.030357  0
0.655389  -0.102385  0.748320  0
0.787354  0.116380  -0.605417  0
0.570009  0.182620  -0.801087  0
0.936313  0.197912  -0.290083  0
-0.096992  0.608471  -0.787627  0
-0.323981  -0.212444  -0.921902  0
-0.381637  -0.681677  -0.624236  0
-0.120340  0.011392  -0.992667  0
-0.779944  -0.117140  -0.614789  0
-0.775984  -0.380007  -0.503432  0
0.425444  0.357253  -0.831485  0
-0.523729  0.126362  -0.842461  0
0.206746  0.560724  -0.801776  0
0.225848  -0.183919  -0.956643  0
0.250402  -0.277395  -0.927551  0
0.980094  0.071623  0.185165  0
0.593507  -0.266126  -0.759557  0
0.919178  0.332753  -0.210682  0
0.157784  -0.310700  -0.937320  0
0.973711  0.123239  -0.191569  0
0.956235  0.150732  0.250787  0
0.912186  0.066597  0.404329  0
0.505825  -0.524114  -0.685161  0
-0.126841  -0.890936  -0.436055  0
0.307966  -0.647731  -0.696851  0
0.052698  -0.797836  -0.600567  0
0.109307  -0.608835  -0.785731  0
-0.015952  0.999084  -0.039708  0
-0.052978  0.276290  -0.959613  0
-0.302497  0.952963  0.018903  0
-0.200811  0.697576  0.687795  0
-0.059050  0.884920  0.461984  0
-0.178549  0.697736  0.693747  0
0.753268  0.656958  -0.031512  0
-0.293793  0.567962  0.768834  0
-0.256426  0.516339  0.817092  0
-0.122456  0.566906  0.814630  0
-0.222233  -0.703092  -0.675480  0
-0.158420  -0.661847  -0.732708  0
-0.281220  -0.537454  -0.795021  0
-0.352025  -0.596244  -0.721506  0
0.859269  -0.304586  -0.410955  0
-0.497532  -0.866317  0.044226  0
-0.877526  0.031083  0.478521  0
-0.813526  0.477201  0.332347  0
0.436010  0.882257  0.177532  0
0.482798  0.821487  0.303421  0
-0.530011  -0.008623  0.847947  0
-0.612664  0.599624  0.514873  0
-0.827113  0.208613  -0.521885  0
-0.885797  -0.021855  -0.463558  0
-0.342602  -0.865927  0.364410  0
-0.301105  0.670294  0.678264  0
-0.103325  -0.854941  0.508331  0
-0.169786  -0.750329  0.638888  0
0.255068  0.879584  0.401587  0
-0.115012  0.122840  0.985740  0
-0.265821  -0.657192  0.705293  0
-0.027634  -0.991183  0.129590  0
-0.044559  0.905521  0.421955  0
0.399527  0.910451  0.107036  0
0.342811  0.926821  0.153244  0
0.210291  0.957616  0.196847  0
-0.520179  0.829305  0.204123  0
0.333969  0.614428  0.714803  0
-0.264881  0.963864  0.028349  0
-0.719958  0.128225  0.682070  0
0.208999  0.964438  -0.161802  0
-0.761327  0.648219  0.013896  0
-0.889905  0.295920  -0.347131  0
-0.946704  0.140274  0.289955  0
0.675395  0.493622  0.547886  0
0.189627  0.804308  0.563143  0
0.677057  0.570574  0.464800  0
0.242735  0.070331  0.967540  0
-0.059177  -0.918027  -0.392077  0
0.131069  -0.910704  -0.391714  0
-0.199288  -0.519278  -0.831044  0
-0.040656  -0.523811  -0.850864  0
-0.365006  -0.180699  -0.913301  0
-0.901882  -0.242118  -0.357753  0
-0.398861  -0.666486  -0.629846  0
0.026642  -0.569726  -0.821402  0
0.178291  -0.744552  -0.643315  0
-0.926581  0.364787  -0.091530  0
-0.803300  0.574406  0.157374  0
-0.972578  -0.084176  -0.216809  0
-0.660672  -0.742169  0.112687  0
0.052278  -0.928195  0.368403  0
0.605241  0.102645  0.789397  0
0.746860  -0.243837  0.618662  0
0.702448  -0.288474  0.650653  0
-0.418701  -0.401600  0.814498  0
0.492943  -0.719704  0.488910  0
0.048757  -0.904145  0.424434  0
-0.582783  -0.356930  0.730044  0
-0.775624  -0.169324  0.608060  0
-0.918947  -0.353910  0.174026  0
0.277374  -0.689526  0.669043  0
0.713728  -0.650744  0.259086  0
0.700101  0.553181  0.451497  0
0.845065  -0.202774  0.494719  0
0.265533  0.352152  0.897486  0
0.013424  0.291416  0.956502  0
-0.053491  0.215856  0.974959  0
0.000908  -0.241106  0.970498  0
-0.160797  -0.299458  0.940462  0
0.970414  0.155397  0.184792  0
0.978001  -0.189136  -0.087987  0
0.990778  -0.051066  -0.125506  0
0.789286  0.244587  -0.563210  0
0.804158  0.126827  -0.580728  0
-0.974441  0.090096  0.205785  0
-0.994245  -0.081038  -0.070075  0
-0.986510  0.156160  -0.049118  0
-0.813183  0.276881  -0.511929  0
-0.581724  0.482932  -0.654503  0
-0.504087  0.452294  0.735748  0
-0.282070  0.348533  0.893846  0
-0.341558  0.341838  0.875491  0
-0.198003  0.429737  0.880977  0
-0.147549  0.216667  0.965031  0
-0.535050  -0.824434  -0.184474  0
-0.370947  -0.905917  -0.204240  0
-0.479287  -0.872153  0.098144  0
-0.556289  -0.795825  -0.239176  0
-0.802955  -0.578232  -0.144607  0
0.156594  -0.412456  -0.897418  0
0.216179  -0.617671  -0.756141  0
0.235732  -0.611533  -0.755286  0
0.932949  -0.359166  0.024627  0
0.149982  0.116112  0.981847  0
-0.965703  -0.246971  0.080143  0
-0.183972  0.904752  0.384159  0
0.022604  0.711619  0.702202  0
0.431826  0.788826  0.437356  0
-0.171468  0.976784  0.128423  0
-0.982504  -0.163847  0.088542  0
-0.828959  -0.544188  -0.129176  0
-0.939677  0.022373  0.341330  0
-0.673747  0.491413  0.551886  0
-0.822529  0.456538  0.339144  0
-0.600699  0.798965  0.028564  0
0.451492  0.664284  0.595720  0
0.885676  0.310864  0.344880  0
0.644499  0.385091  0.660550  0
-0.549984  -0.668085  0.501179  0
-0.254224  0.050165  0.965843  0
-0.550365  -0.834758  -0.016666  0
-0.208695  -0.977822  0.017598  0
-0.302248  -0.946096  -0.116402  0
-0.305229  0.475608  0.825005  0
0.432716  0.763988  0.478622  0
-0.229537  0.520815  0.822231  0
-0.142713  0.636808  0.757699  0
0.022788  0.858224  0.512769  0
0.156576  0.961571  0.225532  0
-0.682334  -0.350751  0.641400  0
-0.481875  -0.874965  0.047259  0
-0.664446  -0.439112  0.604725  0
0.574215  0.481559  0.662101  0
-0.018272  0.414919  0.909675  0
0.407643  0.557229  0.723410  0
-0.339560  0.850238  0.402236  0
-0.555016  -0.730330  0.398216  0
-0.155216  -0.971244  0.180537  0
-0.306956  -0.935860  0.173041  0
-0.310255  -0.936696  -0.162305  0
-0.509865  -0.828958  -0.229926  0
-0.922888  0.082980  0.376021  0
-0.670002  -0.676044  -0.306695  0
-0.674622  -0.734767  0.070730  0
0.898608  0.430197  -0.086229  0
0.899308  0.435447  -0.040386  0
0.885097  0.461572  -0.059621  0
0.943255  -0.319515  -0.090449  0
0.946159  0.237797  -0.219627  0
-0.566810  0.458169  0.684695  0
-0.814600  -0.086275  0.573570  0
0.525515  0.837039  -0.152313  0
0.504020  0.416021  0.756895  0
-0.043325  -0.255422  0.965858  0
-0.141769  -0.376866  0.915354  0
-0.901104  0.081603  0.425855  0
-0.962124  -0.244298  0.120978  0
-0.589286  0.469394  0.657579  0
-0.284926  0.601638  0.746223  0
-0.909385  0.392405  0.137979  0
-0.866740  0.373991  -0.329987  0
-0.935451  0.243333  -0.256362  0
-0.957595  -0.279336  -0.070598  0
-0.981442  0.049817  0.185176  0
-0.031918  0.558346  0.828994  0
-0.259322  0.697398  0.668122  0
-0.096457  0.336312  0.936798  0
0.347622  -0.447065  0.824192  0
0.738729  -0.374660  0.560275  0
-0.131390  0.629006  -0.766217  0
0.999801  0.005111  0.019291  0
0.193644  0.943727  -0.268106  0
0.262600  0.783667  0.562946  0
0.144895  0.977538  0.153052  0
0.969731  -0.177525  -0.167653  0
0.910099  0.288210  -0.297751  0
