#!ascii version of lh.pial
10242 20480
3572 1568 3571 0
3572 3573 1568 0
3574 3573 3572 0
3574 1570 3573 0
3575 3576 713 0
3577 3576 3575 0
3577 1571 3576 0
3577 3578 1571 0
3535 3578 3577 0
3535 1546 3578 0
3579 3580 1572 0
3581 3580 3579 0
3581 1574 3580 0
3582 3583 715 0
3584 3583 3582 0
3584 1575 3583 0
3584 3585 1575 0
3586 3585 3584 0
3586 1576 3585 0
3587 3588 1577 0
3589 3588 3587 0
3589 1579 3588 0
3590 3591 718 0
3592 3591 3590 0
3592 1580 3591 0
3592 3593 1580 0
3594 3593 3592 0
3594 1581 3593 0
3594 3595 1581 0
3596 3595 3594 0
3596 1583 3595 0
3597 3598 720 0
3599 3598 3597 0
3599 1584 3598 0
3599 3600 1584 0
3557 3600 3599 0
3557 1559 3600 0
3534 3601 1545 0
3602 3601 3534 0
3602 1586 3601 0
3603 3604 721 0
3605 3604 3603 0
3605 1587 3604 0
3605 3606 1587 0
3607 3606 3605 0
3607 1588 3606 0
3608 3609 1589 0
3610 3609 3608 0
3610 1591 3609 0
3611 3612 724 0
3613 3612 3611 0
3613 1592 3612 0
3613 3614 1592 0
3615 3614 3613 0
3615 1593 3614 0
3615 3616 1593 0
3617 3616 3615 0
3617 1595 3616 0
3618 3619 726 0
3620 3619 3618 0
3620 1596 3619 0
3620 3621 1596 0
3579 3621 3620 0
3579 1572 3621 0
3622 3623 1597 0
3624 3623 3622 0
3624 1599 3623 0
3625 3626 728 0
3627 3626 3625 0
3627 1600 3626 0
3627 3628 1600 0
3629 3628 3627 0
3629 1601 3628 0
3630 3631 1602 0
3632 3631 3630 0
3632 1604 3631 0
3633 3634 731 0
3635 3634 3633 0
3635 1605 3634 0
3635 3636 1605 0
3637 3636 3635 0
3637 1606 3636 0
3637 3638 1606 0
3639 3638 3637 0
3639 1608 3638 0
3640 3641 733 0
3642 3641 3640 0
3642 1609 3641 0
3642 3643 1609 0
3644 3643 3642 0
3644 1610 3643 0
3645 3646 1611 0
3647 3646 3645 0
3647 1613 3646 0
3648 3649 736 0
3650 3649 3648 0
3650 1614 3649 0
3650 3651 1614 0
3652 3651 3650 0
3652 1615 3651 0
3653 3654 1616 0
3655 3654 3653 0
3655 1618 3654 0
3656 3657 739 0
3658 3657 3656 0
3658 1619 3657 0
3658 3659 1619 0
3660 3659 3658 0
3660 1620 3659 0
3660 3661 1620 0
3662 3661 3660 0
3662 1622 3661 0
3663 3664 741 0
3665 3664 3663 0
3665 1623 3664 0
3665 3666 1623 0
3622 3666 3665 0
3622 1597 3666 0
3667 3668 1624 0
3669 3668 3667 0
3669 1626 3668 0
3670 3671 743 0
3672 3671 3670 0
3672 1627 3671 0
3672 3673 1627 0
3674 3673 3672 0
3674 1628 3673 0
3675 3676 1629 0
3677 3676 3675 0
3677 1631 3676 0
3678 3679 746 0
3680 3679 3678 0
3680 1632 3679 0
3680 3681 1632 0
3682 3681 3680 0
3682 1633 3681 0
3682 3683 1633 0
3684 3683 3682 0
3684 1635 3683 0
3685 3686 748 0
3687 3686 3685 0
3687 1636 3686 0
3687 3688 1636 0
3645 3688 3687 0
3645 1611 3688 0
3689 3690 1637 0
3691 3690 3689 0
3691 1639 3690 0
3692 3693 750 0
3694 3693 3692 0
3694 1640 3693 0
3694 3695 1640 0
3696 3695 3694 0
3696 1641 3695 0
3697 3698 1642 0
3699 3698 3697 0
3699 1644 3698 0
3700 3701 753 0
3702 3701 3700 0
3702 1645 3701 0
3702 3703 1645 0
3704 3703 3702 0
3704 1646 3703 0
3704 3705 1646 0
3706 3705 3704 0
3706 1648 3705 0
3707 3708 755 0
3709 3708 3707 0
3709 1649 3708 0
3709 3710 1649 0
3711 3710 3709 0
3711 1650 3710 0
3712 3713 1651 0
3714 3713 3712 0
3714 1653 3713 0
3715 3716 758 0
3717 3716 3715 0
3717 1654 3716 0
3717 3718 1654 0
3719 3718 3717 0
3719 1655 3718 0
3720 3721 1656 0
3722 3721 3720 0
3722 1658 3721 0
3723 3724 761 0
3725 3724 3723 0
3725 1659 3724 0
3725 3726 1659 0
3727 3726 3725 0
3727 1660 3726 0
3727 3728 1660 0
3729 3728 3727 0
3729 1662 3728 0
3730 3731 763 0
3732 3731 3730 0
3732 1663 3731 0
3732 3733 1663 0
3689 3733 3732 0
3689 1637 3733 0
3734 3735 1664 0
3736 3735 3734 0
3736 1666 3735 0
3737 3738 765 0
3739 3738 3737 0
3739 1667 3738 0
3739 3740 1667 0
3741 3740 3739 0
3741 1668 3740 0
3742 3743 1669 0
3744 3743 3742 0
3744 1671 3743 0
3745 3746 768 0
3747 3746 3745 0
3747 1672 3746 0
3747 3748 1672 0
3749 3748 3747 0
3749 1673 3748 0
3749 3750 1673 0
3751 3750 3749 0
3751 1675 3750 0
3752 3753 770 0
3754 3753 3752 0
3754 1676 3753 0
3754 3755 1676 0
3756 3755 3754 0
3756 1677 3755 0
3757 3758 1678 0
3759 3758 3757 0
3759 1680 3758 0
3760 3761 773 0
3762 3761 3760 0
3762 1681 3761 0
3762 3763 1681 0
3764 3763 3762 0
3764 1682 3763 0
3765 3766 1683 0
3767 3766 3765 0
3767 1685 3766 0
3768 3769 776 0
3770 3769 3768 0
3770 1686 3769 0
3770 3771 1686 0
3772 3771 3770 0
3772 1687 3771 0
3772 3773 1687 0
3774 3773 3772 0
3774 1689 3773 0
3775 3776 778 0
3777 3776 3775 0
3777 1690 3776 0
3777 3778 1690 0
3734 3778 3777 0
3734 1664 3778 0
3779 3780 1691 0
3781 3780 3779 0
3781 1693 3780 0
3782 3783 780 0
3784 3783 3782 0
3784 1694 3783 0
3784 3785 1694 0
3786 3785 3784 0
3786 1695 3785 0
3787 3788 1696 0
3789 3788 3787 0
3789 1698 3788 0
3790 3791 783 0
3792 3791 3790 0
3792 1699 3791 0
3792 3793 1699 0
3794 3793 3792 0
3794 1700 3793 0
3794 3795 1700 0
3796 3795 3794 0
3796 1702 3795 0
3797 3798 785 0
3799 3798 3797 0
3799 1703 3798 0
3799 3800 1703 0
3801 3800 3799 0
3801 1704 3800 0
3802 3803 1705 0
3804 3803 3802 0
3804 1707 3803 0
3805 3806 788 0
3807 3806 3805 0
3807 1708 3806 0
3807 3808 1708 0
3809 3808 3807 0
3809 1709 3808 0
3810 3811 1710 0
3812 3811 3810 0
3812 1712 3811 0
3813 3814 791 0
3815 3814 3813 0
3815 1713 3814 0
3815 3816 1713 0
3817 3816 3815 0
3817 1714 3816 0
3817 3818 1714 0
3819 3818 3817 0
3819 1716 3818 0
3820 3821 793 0
3822 3821 3820 0
3822 1717 3821 0
3822 3823 1717 0
3779 3823 3822 0
3779 1691 3823 0
3824 3825 1718 0
3826 3825 3824 0
3826 1720 3825 0
3827 3828 795 0
3829 3828 3827 0
3829 1721 3828 0
3829 3830 1721 0
3831 3830 3829 0
3831 1722 3830 0
3832 3833 1723 0
3834 3833 3832 0
3834 1725 3833 0
3835 3836 798 0
3837 3836 3835 0
3837 1726 3836 0
3837 3838 1726 0
3839 3838 3837 0
3839 1727 3838 0
3839 3840 1727 0
3841 3840 3839 0
3841 1729 3840 0
3842 3843 800 0
3844 3843 3842 0
3844 1730 3843 0
3844 3845 1730 0
3846 3845 3844 0
3846 1731 3845 0
3847 3848 1732 0
3849 3848 3847 0
3849 1734 3848 0
3850 3851 803 0
3852 3851 3850 0
3852 1735 3851 0
3852 3853 1735 0
3854 3853 3852 0
3854 1736 3853 0
3855 3856 1737 0
3857 3856 3855 0
3857 1739 3856 0
3858 3859 806 0
3860 3859 3858 0
3860 1740 3859 0
3860 3861 1740 0
3862 3861 3860 0
3862 1741 3861 0
3862 3863 1741 0
3864 3863 3862 0
3864 1743 3863 0
3865 3866 808 0
3867 3866 3865 0
3867 1744 3866 0
3867 3868 1744 0
3869 3868 3867 0
3869 1745 3868 0
3870 3871 1746 0
3872 3871 3870 0
3872 1748 3871 0
3873 3874 811 0
3875 3874 3873 0
3875 1749 3874 0
3875 3876 1749 0
3877 3876 3875 0
3877 1750 3876 0
3878 3879 1751 0
3880 3879 3878 0
3880 1753 3879 0
3881 3882 814 0
3883 3882 3881 0
3883 1754 3882 0
3883 3884 1754 0
3885 3884 3883 0
3885 1755 3884 0
3885 3886 1755 0
3887 3886 3885 0
3887 1757 3886 0
3888 3889 816 0
3890 3889 3888 0
3890 1758 3889 0
3890 3891 1758 0
3892 3891 3890 0
3892 1759 3891 0
3893 3894 1760 0
3895 3894 3893 0
3895 1762 3894 0
3896 3897 819 0
3898 3897 3896 0
3898 1763 3897 0
3898 3899 1763 0
3900 3899 3898 0
3900 1764 3899 0
3901 3902 1765 0
3903 3902 3901 0
3903 1767 3902 0
3904 3905 822 0
3906 3905 3904 0
3906 1768 3905 0
3906 3907 1768 0
3908 3907 3906 0
3908 1769 3907 0
3908 3909 1769 0
3910 3909 3908 0
3910 1771 3909 0
3911 3912 824 0
3913 3912 3911 0
3913 1772 3912 0
3913 3914 1772 0
3915 3914 3913 0
3915 1773 3914 0
3916 3917 1774 0
3918 3917 3916 0
3918 1776 3917 0
3919 3920 827 0
3921 3920 3919 0
3921 1777 3920 0
3921 3922 1777 0
3923 3922 3921 0
3923 1778 3922 0
3924 3925 1779 0
3926 3925 3924 0
3926 1781 3925 0
3927 3928 830 0
3929 3928 3927 0
3929 1782 3928 0
3929 3930 1782 0
3931 3930 3929 0
3931 1783 3930 0
3931 3932 1783 0
3933 3932 3931 0
3933 1785 3932 0
3934 3935 832 0
3936 3935 3934 0
3936 1786 3935 0
3936 3937 1786 0
3938 3937 3936 0
3938 1787 3937 0
3939 3940 1788 0
3941 3940 3939 0
3941 1790 3940 0
3942 3943 835 0
3944 3943 3942 0
3944 1791 3943 0
3944 3945 1791 0
3946 3945 3944 0
3946 1792 3945 0
3947 3948 1793 0
3949 3948 3947 0
3949 1795 3948 0
3950 3951 838 0
3952 3951 3950 0
3952 1796 3951 0
3952 3953 1796 0
3954 3953 3952 0
3954 1797 3953 0
3954 3955 1797 0
3956 3955 3954 0
3956 1799 3955 0
3957 3958 840 0
3959 3958 3957 0
3959 1800 3958 0
3959 3960 1800 0
3961 3960 3959 0
3961 1801 3960 0
3962 3963 1802 0
3964 3963 3962 0
3964 1804 3963 0
3965 3966 843 0
3967 3966 3965 0
3967 1805 3966 0
3967 3968 1805 0
3969 3968 3967 0
3969 1806 3968 0
3970 3971 1443 0
3972 3971 3970 0
3972 1807 3971 0
3973 3974 846 0
3975 3974 3973 0
3975 1808 3974 0
3975 3976 1808 0
3977 3976 3975 0
3977 1809 3976 0
3977 3978 1809 0
3979 3978 3977 0
3979 1810 3978 0
3980 3981 848 0
3982 3981 3980 0
3982 1811 3981 0
3982 3983 1811 0
3984 3983 3982 0
3984 1812 3983 0
3985 3986 1813 0
3987 3986 3985 0
3987 1815 3986 0
3988 3989 851 0
3990 3989 3988 0
3990 1816 3989 0
3990 3991 1816 0
3992 3991 3990 0
3992 1817 3991 0
3993 3994 1448 0
3995 3994 3993 0
3995 1818 3994 0
3996 3997 854 0
3998 3997 3996 0
3998 1819 3997 0
3998 3999 1819 0
4000 3999 3998 0
4000 1820 3999 0
4000 4001 1820 0
4002 4001 4000 0
4002 1821 4001 0
4003 4004 856 0
4005 4004 4003 0
4005 1822 4004 0
4005 4006 1822 0
3962 4006 4005 0
3962 1802 4006 0
4007 4008 1823 0
4009 4008 4007 0
4009 1825 4008 0
4010 4011 858 0
4012 4011 4010 0
4012 1826 4011 0
4012 4013 1826 0
4014 4013 4012 0
4014 1827 4013 0
4015 4016 1452 0
4017 4016 4015 0
4017 1828 4016 0
4018 4019 861 0
4020 4019 4018 0
4020 1829 4019 0
4020 4021 1829 0
4022 4021 4020 0
4022 1830 4021 0
4022 4023 1830 0
4024 4023 4022 0
4024 1831 4023 0
4025 4026 863 0
4027 4026 4025 0
4027 1832 4026 0
4027 4028 1832 0
3985 4028 4027 0
3985 1813 4028 0
4029 4030 1833 0
4031 4030 4029 0
4031 1835 4030 0
4032 4033 865 0
4034 4033 4032 0
4034 1836 4033 0
4034 4035 1836 0
4036 4035 4034 0
4036 1837 4035 0
4037 4038 1456 0
4039 4038 4037 0
4039 1838 4038 0
4040 4041 868 0
4042 4041 4040 0
4042 1839 4041 0
4042 4043 1839 0
4044 4043 4042 0
4044 1840 4043 0
4044 4045 1840 0
4046 4045 4044 0
4046 1841 4045 0
4047 4048 870 0
4049 4048 4047 0
4049 1842 4048 0
4049 4050 1842 0
4007 4050 4049 0
4007 1823 4050 0
3984 4051 1812 0
4052 4051 3984 0
4052 1844 4051 0
4053 4054 871 0
4055 4054 4053 0
4055 1845 4054 0
4055 4056 1845 0
4057 4056 4055 0
4057 1846 4056 0
4058 4059 1459 0
4060 4059 4058 0
4060 1847 4059 0
4061 4062 874 0
4063 4062 4061 0
4063 1848 4062 0
4063 4064 1848 0
4065 4064 4063 0
4065 1849 4064 0
4065 4066 1849 0
4067 4066 4065 0
4067 1850 4066 0
4068 4069 876 0
4070 4069 4068 0
4070 1851 4069 0
4070 4071 1851 0
4029 4071 4070 0
4029 1833 4071 0
4072 4073 1852 0
4074 4073 4072 0
4074 1854 4073 0
4075 4076 878 0
4077 4076 4075 0
4077 1855 4076 0
4077 4078 1855 0
4079 4078 4077 0
4079 1856 4078 0
4080 4081 1463 0
4082 4081 4080 0
4082 1857 4081 0
4083 4084 881 0
4085 4084 4083 0
4085 1858 4084 0
4085 4086 1858 0
4087 4086 4085 0
4087 1859 4086 0
4087 4088 1859 0
4089 4088 4087 0
4089 1860 4088 0
4090 4091 883 0
4092 4091 4090 0
4092 1861 4091 0
4092 4093 1861 0
4094 4093 4092 0
4094 1862 4093 0
4095 4096 1863 0
4097 4096 4095 0
4097 1865 4096 0
4098 4099 886 0
4100 4099 4098 0
4100 1866 4099 0
4100 4101 1866 0
4102 4101 4100 0
4102 1867 4101 0
4103 4104 1468 0
4105 4104 4103 0
4105 1868 4104 0
4106 4107 889 0
4108 4107 4106 0
4108 1869 4107 0
4108 4109 1869 0
4110 4109 4108 0
4110 1870 4109 0
4110 4111 1870 0
4112 4111 4110 0
4112 1871 4111 0
4113 4114 891 0
4115 4114 4113 0
4115 1872 4114 0
4115 4116 1872 0
4072 4116 4115 0
4072 1852 4116 0
4117 4118 1873 0
4119 4118 4117 0
4119 1875 4118 0
4120 4121 893 0
4122 4121 4120 0
4122 1876 4121 0
4122 4123 1876 0
4124 4123 4122 0
4124 1877 4123 0
4125 4126 1472 0
4127 4126 4125 0
4127 1878 4126 0
4128 4129 896 0
4130 4129 4128 0
4130 1879 4129 0
4130 4131 1879 0
4132 4131 4130 0
4132 1880 4131 0
4132 4133 1880 0
4134 4133 4132 0
4134 1881 4133 0
4135 4136 898 0
4137 4136 4135 0
4137 1882 4136 0
4137 4138 1882 0
4095 4138 4137 0
4095 1863 4138 0
4139 4140 1883 0
4141 4140 4139 0
4141 1885 4140 0
4142 4143 900 0
4144 4143 4142 0
4144 1886 4143 0
4144 4145 1886 0
4146 4145 4144 0
4146 1887 4145 0
4147 4148 1476 0
4149 4148 4147 0
4149 1888 4148 0
4150 4151 903 0
4152 4151 4150 0
4152 1889 4151 0
4152 4153 1889 0
4154 4153 4152 0
4154 1890 4153 0
4154 4155 1890 0
4156 4155 4154 0
4156 1891 4155 0
4157 4158 905 0
4159 4158 4157 0
4159 1892 4158 0
4159 4160 1892 0
4161 4160 4159 0
4161 1893 4160 0
4162 4163 1894 0
4164 4163 4162 0
4164 1896 4163 0
4165 4166 908 0
4167 4166 4165 0
4167 1897 4166 0
4167 4168 1897 0
4169 4168 4167 0
4169 1898 4168 0
4170 4171 1481 0
4172 4171 4170 0
4172 1899 4171 0
4173 4174 911 0
4175 4174 4173 0
4175 1900 4174 0
4175 4176 1900 0
4177 4176 4175 0
4177 1901 4176 0
4177 4178 1901 0
4179 4178 4177 0
4179 1902 4178 0
4180 4181 913 0
4182 4181 4180 0
4182 1903 4181 0
4182 4183 1903 0
4139 4183 4182 0
4139 1883 4183 0
4184 4185 1904 0
4186 4185 4184 0
4186 1906 4185 0
4187 4188 915 0
4189 4188 4187 0
4189 1907 4188 0
4189 4190 1907 0
4191 4190 4189 0
4191 1908 4190 0
4192 4193 1485 0
4194 4193 4192 0
4194 1909 4193 0
4195 4196 918 0
4197 4196 4195 0
4197 1910 4196 0
4197 4198 1910 0
4199 4198 4197 0
4199 1911 4198 0
4199 4200 1911 0
4201 4200 4199 0
4201 1912 4200 0
4202 4203 920 0
4204 4203 4202 0
4204 1913 4203 0
4204 4205 1913 0
4206 4205 4204 0
4206 1914 4205 0
4207 4208 1915 0
4209 4208 4207 0
4209 1917 4208 0
4210 4211 923 0
4212 4211 4210 0
4212 1918 4211 0
4212 4213 1918 0
4214 4213 4212 0
4214 1919 4213 0
4215 4216 1490 0
4217 4216 4215 0
4217 1920 4216 0
4218 4219 926 0
4220 4219 4218 0
4220 1921 4219 0
4220 4221 1921 0
4222 4221 4220 0
4222 1922 4221 0
4222 4223 1922 0
4224 4223 4222 0
4224 1923 4223 0
4225 4226 928 0
4227 4226 4225 0
4227 1924 4226 0
4227 4228 1924 0
4184 4228 4227 0
4184 1904 4228 0
4229 4230 1925 0
4231 4230 4229 0
4231 1927 4230 0
4232 4233 930 0
4234 4233 4232 0
4234 1928 4233 0
4234 4235 1928 0
4236 4235 4234 0
4236 1929 4235 0
4237 4238 1494 0
4239 4238 4237 0
4239 1930 4238 0
4240 4241 933 0
4242 4241 4240 0
4242 1931 4241 0
4242 4243 1931 0
4244 4243 4242 0
4244 1932 4243 0
4244 4245 1932 0
4246 4245 4244 0
4246 1933 4245 0
4247 4248 935 0
4249 4248 4247 0
4249 1934 4248 0
4249 4250 1934 0
4251 4250 4249 0
4251 1935 4250 0
4252 4253 1936 0
4254 4253 4252 0
4254 1938 4253 0
4255 4256 938 0
4257 4256 4255 0
4257 1939 4256 0
4257 4258 1939 0
4259 4258 4257 0
4259 1940 4258 0
4260 4261 1499 0
4262 4261 4260 0
4262 1941 4261 0
4263 4264 941 0
4265 4264 4263 0
4265 1942 4264 0
4265 4266 1942 0
4267 4266 4265 0
4267 1943 4266 0
4267 4268 1943 0
4269 4268 4267 0
4269 1944 4268 0
4270 4271 943 0
4272 4271 4270 0
4272 1945 4271 0
4272 4273 1945 0
4229 4273 4272 0
4229 1925 4273 0
4274 4275 1946 0
4276 4275 4274 0
4276 1948 4275 0
4277 4278 945 0
4279 4278 4277 0
4279 1949 4278 0
4279 4280 1949 0
4281 4280 4279 0
4281 1950 4280 0
4282 4283 1503 0
4284 4283 4282 0
4284 1951 4283 0
4285 4286 948 0
4287 4286 4285 0
4287 1952 4286 0
4287 4288 1952 0
4289 4288 4287 0
4289 1953 4288 0
4289 4290 1953 0
4291 4290 4289 0
4291 1954 4290 0
4292 4293 950 0
4294 4293 4292 0
4294 1955 4293 0
4294 4295 1955 0
4296 4295 4294 0
4296 1956 4295 0
4297 4298 1957 0
4299 4298 4297 0
4299 1959 4298 0
4300 4301 953 0
4302 4301 4300 0
4302 1960 4301 0
4302 4303 1960 0
4304 4303 4302 0
4304 1961 4303 0
4305 4306 1508 0
4307 4306 4305 0
4307 1962 4306 0
4308 4309 956 0
4310 4309 4308 0
4310 1963 4309 0
4310 4311 1963 0
4312 4311 4310 0
4312 1964 4311 0
4312 4313 1964 0
4314 4313 4312 0
4314 1965 4313 0
4315 4316 958 0
4317 4316 4315 0
4317 1966 4316 0
4317 4318 1966 0
4319 4318 4317 0
4319 1967 4318 0
4320 4321 1968 0
4322 4321 4320 0
4322 1970 4321 0
4323 4324 961 0
4325 4324 4323 0
4325 1971 4324 0
4325 4326 1971 0
4327 4326 4325 0
4327 1972 4326 0
4328 4329 1513 0
4330 4329 4328 0
4330 1973 4329 0
4331 4332 964 0
4333 4332 4331 0
4333 1974 4332 0
4333 4334 1974 0
4335 4334 4333 0
4335 1975 4334 0
4335 4336 1975 0
4337 4336 4335 0
4337 1976 4336 0
4338 4339 966 0
4340 4339 4338 0
4340 1977 4339 0
4340 4341 1977 0
4342 4341 4340 0
4342 1978 4341 0
4343 4344 1979 0
4345 4344 4343 0
4345 1981 4344 0
4346 4347 969 0
4348 4347 4346 0
4348 1982 4347 0
4348 4349 1982 0
4350 4349 4348 0
4350 1983 4349 0
4351 4352 1518 0
4353 4352 4351 0
4353 1984 4352 0
4354 4355 972 0
4356 4355 4354 0
4356 1985 4355 0
4356 4357 1985 0
4358 4357 4356 0
4358 1986 4357 0
4358 4359 1986 0
4360 4359 4358 0
4360 1987 4359 0
4361 4362 974 0
4363 4362 4361 0
4363 1988 4362 0
4363 4364 1988 0
4365 4364 4363 0
4365 1989 4364 0
4366 4367 1990 0
4368 4367 4366 0
4368 1992 4367 0
4369 4370 977 0
4371 4370 4369 0
4371 1993 4370 0
4371 4372 1993 0
4373 4372 4371 0
4373 1994 4372 0
4374 4375 1523 0
4376 4375 4374 0
4376 1995 4375 0
4377 4378 980 0
4379 4378 4377 0
4379 1996 4378 0
4379 4380 1996 0
4381 4380 4379 0
4381 1997 4380 0
4381 4382 1997 0
4383 4382 4381 0
4383 1998 4382 0
4384 4385 982 0
4386 4385 4384 0
4386 1999 4385 0
4386 4387 1999 0
4388 4387 4386 0
4388 2000 4387 0
4389 4390 2001 0
4391 4390 4389 0
4391 2003 4390 0
4392 4393 985 0
4394 4393 4392 0
4394 2004 4393 0
4394 4395 2004 0
4396 4395 4394 0
4396 2005 4395 0
4397 4398 1528 0
4399 4398 4397 0
4399 2006 4398 0
4400 4401 988 0
4402 4401 4400 0
4402 2007 4401 0
4402 4403 2007 0
4404 4403 4402 0
4404 2008 4403 0
4404 4405 2008 0
4406 4405 4404 0
4406 2009 4405 0
4407 4408 990 0
4409 4408 4407 0
4409 2010 4408 0
4409 4410 2010 0
4411 4410 4409 0
4411 2011 4410 0
4412 4413 2012 0
4414 4413 4412 0
4414 2014 4413 0
4415 4416 993 0
4417 4416 4415 0
4417 2015 4416 0
4417 4418 2015 0
4419 4418 4417 0
4419 2016 4418 0
4420 4421 1533 0
4422 4421 4420 0
4422 2017 4421 0
4423 4424 996 0
4425 4424 4423 0
4425 2018 4424 0
4425 4426 2018 0
4427 4426 4425 0
4427 2019 4426 0
4427 4428 2019 0
4429 4428 4427 0
4429 2020 4428 0
4430 4431 998 0
4432 4431 4430 0
4432 2021 4431 0
4432 4433 2021 0
4434 4433 4432 0
4434 2022 4433 0
4435 4436 1803 0
4437 4436 4435 0
4437 2023 4436 0
4438 4439 1001 0
4440 4439 4438 0
4440 2024 4439 0
4440 4441 2024 0
4442 4441 4440 0
4442 2025 4441 0
4443 4444 1538 0
4445 4444 4443 0
4445 2026 4444 0
4446 4447 1004 0
4448 4447 4446 0
4448 2027 4447 0
4448 4449 2027 0
4450 4449 4448 0
4450 2028 4449 0
4450 4451 2028 0
4452 4451 4450 0
4452 2029 4451 0
4453 4454 1006 0
4455 4454 4453 0
4455 2030 4454 0
4455 4456 2030 0
4457 4456 4455 0
4457 2031 4456 0
4457 4458 2031 0
4459 4458 4457 0
4459 2032 4458 0
4460 4461 1008 0
4462 4461 4460 0
4462 2033 4461 0
4462 4463 2033 0
4464 4463 4462 0
4464 2034 4463 0
4465 4466 1542 0
4467 4466 4465 0
4467 2035 4466 0
4468 4469 1011 0
4470 4469 4468 0
4470 2036 4469 0
4470 4471 2036 0
4472 4471 4470 0
4472 2037 4471 0
4472 4473 2037 0
4474 4473 4472 0
4474 2038 4473 0
4475 4476 1013 0
4477 4476 4475 0
4477 2039 4476 0
4477 4478 2039 0
4479 4478 4477 0
4479 2040 4478 0
4480 4481 2041 0
4482 4481 4480 0
4482 2043 4481 0
4483 4484 1016 0
4485 4484 4483 0
4485 2044 4484 0
4485 4486 2044 0
4487 4486 4485 0
4487 2045 4486 0
4488 4489 1547 0
4490 4489 4488 0
4490 2046 4489 0
4491 4492 1019 0
4493 4492 4491 0
4493 2047 4492 0
4493 4494 2047 0
4495 4494 4493 0
4495 2048 4494 0
4495 4496 2048 0
4497 4496 4495 0
4497 2049 4496 0
4498 4499 1021 0
4500 4499 4498 0
4500 2050 4499 0
4500 4501 2050 0
4502 4501 4500 0
4502 2051 4501 0
4503 4504 1814 0
4505 4504 4503 0
4505 2052 4504 0
4506 4507 1024 0
4508 4507 4506 0
4508 2053 4507 0
4508 4509 2053 0
4510 4509 4508 0
4510 2054 4509 0
4511 4512 1552 0
4513 4512 4511 0
4513 2055 4512 0
4514 4515 1027 0
4516 4515 4514 0
4516 2056 4515 0
4516 4517 2056 0
4518 4517 4516 0
4518 2057 4517 0
4518 4519 2057 0
4520 4519 4518 0
4520 2058 4519 0
4521 4522 1029 0
4523 4522 4521 0
4523 2059 4522 0
4523 4524 2059 0
4525 4524 4523 0
4525 2060 4524 0
4525 4526 2060 0
4527 4526 4525 0
4527 2061 4526 0
4528 4529 1031 0
4530 4529 4528 0
4530 2062 4529 0
4530 4531 2062 0
4532 4531 4530 0
4532 2063 4531 0
4533 4534 1556 0
4535 4534 4533 0
4535 2064 4534 0
4536 4537 1034 0
4538 4537 4536 0
4538 2065 4537 0
4538 4539 2065 0
4540 4539 4538 0
4540 2066 4539 0
4540 4541 2066 0
4542 4541 4540 0
4542 2067 4541 0
4543 4544 1036 0
4545 4544 4543 0
4545 2068 4544 0
4545 4546 2068 0
4412 4546 4545 0
4412 2012 4546 0
4547 4548 2069 0
4549 4548 4547 0
4549 2071 4548 0
4550 4551 1038 0
4552 4551 4550 0
4552 2072 4551 0
4552 4553 2072 0
4554 4553 4552 0
4554 2073 4553 0
4555 4556 1560 0
4557 4556 4555 0
4557 2074 4556 0
4558 4559 1041 0
4560 4559 4558 0
4560 2075 4559 0
4560 4561 2075 0
4562 4561 4560 0
4562 2076 4561 0
4562 4563 2076 0
4564 4563 4562 0
4564 2077 4563 0
4565 4566 1043 0
4567 4566 4565 0
4567 2078 4566 0
4567 4568 2078 0
4569 4568 4567 0
4569 2079 4568 0
4570 4571 1824 0
4572 4571 4570 0
4572 2080 4571 0
4573 4574 1046 0
4575 4574 4573 0
4575 2081 4574 0
4575 4576 2081 0
4577 4576 4575 0
4577 2082 4576 0
4578 4579 1565 0
4580 4579 4578 0
4580 2083 4579 0
4581 4582 1049 0
4583 4582 4581 0
4583 2084 4582 0
4583 4584 2084 0
4585 4584 4583 0
4585 2085 4584 0
4585 4586 2085 0
4587 4586 4585 0
4587 2086 4586 0
4588 4589 1051 0
4590 4589 4588 0
4590 2087 4589 0
4590 4591 2087 0
4592 4591 4590 0
4592 2088 4591 0
4592 4593 2088 0
4594 4593 4592 0
4594 2089 4593 0
4595 4596 1053 0
4597 4596 4595 0
4597 2090 4596 0
4597 4598 2090 0
4599 4598 4597 0
4599 2091 4598 0
4600 4601 1569 0
4602 4601 4600 0
4602 2092 4601 0
4603 4604 1056 0
4605 4604 4603 0
4605 2093 4604 0
4605 4606 2093 0
4607 4606 4605 0
4607 2094 4606 0
4607 4608 2094 0
4609 4608 4607 0
4609 2095 4608 0
4610 4611 1058 0
4612 4611 4610 0
4612 2096 4611 0
4612 4613 2096 0
4480 4613 4612 0
4480 2041 4613 0
4614 4615 2097 0
4616 4615 4614 0
4616 2099 4615 0
4617 4618 1060 0
4619 4618 4617 0
4619 2100 4618 0
4619 4620 2100 0
4621 4620 4619 0
4621 2101 4620 0
4622 4623 1573 0
4624 4623 4622 0
4624 2102 4623 0
4625 4626 1063 0
4627 4626 4625 0
4627 2103 4626 0
4627 4628 2103 0
4629 4628 4627 0
4629 2104 4628 0
4629 4630 2104 0
4631 4630 4629 0
4631 2105 4630 0
4632 4633 1065 0
4634 4633 4632 0
4634 2106 4633 0
4634 4635 2106 0
4636 4635 4634 0
4636 2107 4635 0
4637 4638 1834 0
4639 4638 4637 0
4639 2108 4638 0
4640 4641 1068 0
4642 4641 4640 0
4642 2109 4641 0
4642 4643 2109 0
4644 4643 4642 0
4644 2110 4643 0
4645 4646 1578 0
4647 4646 4645 0
4647 2111 4646 0
4648 4649 1071 0
4650 4649 4648 0
4650 2112 4649 0
4650 4651 2112 0
4652 4651 4650 0
4652 2113 4651 0
4652 4653 2113 0
4654 4653 4652 0
4654 2114 4653 0
4655 4656 1073 0
4657 4656 4655 0
4657 2115 4656 0
4657 4658 2115 0
4659 4658 4657 0
4659 2116 4658 0
4659 4660 2116 0
4661 4660 4659 0
4661 2117 4660 0
4662 4663 1075 0
4664 4663 4662 0
4664 2118 4663 0
4664 4665 2118 0
4666 4665 4664 0
4666 2119 4665 0
4667 4668 1582 0
4669 4668 4667 0
4669 2120 4668 0
4670 4671 1078 0
4672 4671 4670 0
4672 2121 4671 0
4672 4673 2121 0
4674 4673 4672 0
4674 2122 4673 0
4674 4675 2122 0
4676 4675 4674 0
4676 2123 4675 0
4677 4678 1080 0
4679 4678 4677 0
4679 2124 4678 0
4679 4680 2124 0
4547 4680 4679 0
4547 2069 4680 0
4479 4681 2040 0
4682 4681 4479 0
4682 2125 4681 0
4683 4684 1081 0
4685 4684 4683 0
4685 2126 4684 0
4685 4686 2126 0
4687 4686 4685 0
4687 2127 4686 0
4688 4689 1585 0
4690 4689 4688 0
4690 2128 4689 0
4691 4692 1084 0
4693 4692 4691 0
4693 2129 4692 0
4693 4694 2129 0
4695 4694 4693 0
4695 2130 4694 0
4695 4696 2130 0
4697 4696 4695 0
4697 2131 4696 0
4698 4699 1086 0
4700 4699 4698 0
4700 2132 4699 0
4700 4701 2132 0
4702 4701 4700 0
4702 2133 4701 0
4703 4704 1843 0
4705 4704 4703 0
4705 2134 4704 0
4706 4707 1089 0
4708 4707 4706 0
4708 2135 4707 0
4708 4709 2135 0
4710 4709 4708 0
4710 2136 4709 0
4711 4712 1590 0
4713 4712 4711 0
4713 2137 4712 0
4714 4715 1092 0
4716 4715 4714 0
4716 2138 4715 0
4716 4717 2138 0
4718 4717 4716 0
4718 2139 4717 0
4718 4719 2139 0
4720 4719 4718 0
4720 2140 4719 0
4721 4722 1094 0
4723 4722 4721 0
4723 2141 4722 0
4723 4724 2141 0
4725 4724 4723 0
4725 2142 4724 0
4725 4726 2142 0
4727 4726 4725 0
4727 2143 4726 0
4728 4729 1096 0
4730 4729 4728 0
4730 2144 4729 0
4730 4731 2144 0
4732 4731 4730 0
4732 2145 4731 0
4733 4734 1594 0
4735 4734 4733 0
4735 2146 4734 0
4736 4737 1099 0
4738 4737 4736 0
4738 2147 4737 0
4738 4739 2147 0
4740 4739 4738 0
4740 2148 4739 0
4740 4741 2148 0
4742 4741 4740 0
4742 2149 4741 0
4743 4744 1101 0
4745 4744 4743 0
4745 2150 4744 0
4745 4746 2150 0
4614 4746 4745 0
4614 2097 4746 0
4747 4748 2152 0
4749 4748 4747 0
4749 2154 4748 0
4750 4751 1103 0
4752 4751 4750 0
4752 2155 4751 0
4752 4753 2155 0
4754 4753 4752 0
4754 2156 4753 0
4755 4756 1598 0
4757 4756 4755 0
4757 2157 4756 0
4758 4759 1106 0
4760 4759 4758 0
4760 2158 4759 0
4760 4761 2158 0
4762 4761 4760 0
4762 2159 4761 0
4762 4763 2159 0
4764 4763 4762 0
4764 2160 4763 0
4765 4766 1108 0
4767 4766 4765 0
4767 2161 4766 0
4767 4768 2161 0
4769 4768 4767 0
4769 2162 4768 0
4770 4771 1853 0
4772 4771 4770 0
4772 2163 4771 0
4773 4774 1111 0
4775 4774 4773 0
4775 2164 4774 0
4775 4776 2164 0
4777 4776 4775 0
4777 2165 4776 0
4778 4779 1603 0
4780 4779 4778 0
4780 2166 4779 0
4781 4782 1114 0
4783 4782 4781 0
4783 2167 4782 0
4783 4784 2167 0
4785 4784 4783 0
4785 2168 4784 0
4785 4786 2168 0
4787 4786 4785 0
4787 2169 4786 0
4788 4789 1116 0
4790 4789 4788 0
4790 2170 4789 0
4790 4791 2170 0
4792 4791 4790 0
4792 2171 4791 0
4792 4793 2171 0
4794 4793 4792 0
4794 2172 4793 0
4795 4796 1118 0
4797 4796 4795 0
4797 2173 4796 0
4797 4798 2173 0
4799 4798 4797 0
4799 2174 4798 0
4800 4801 1607 0
4802 4801 4800 0
4802 2175 4801 0
4803 4804 1121 0
4805 4804 4803 0
4805 2176 4804 0
4805 4806 2176 0
4807 4806 4805 0
4807 2177 4806 0
4807 4808 2177 0
4809 4808 4807 0
4809 2178 4808 0
4810 4811 1123 0
4812 4811 4810 0
4812 2179 4811 0
4812 4813 2179 0
4814 4813 4812 0
4814 2151 4813 0
4815 4816 2180 0
4817 4816 4815 0
4817 2182 4816 0
4818 4819 1126 0
4820 4819 4818 0
4820 2183 4819 0
4820 4821 2183 0
4822 4821 4820 0
4822 2184 4821 0
4823 4824 1612 0
4825 4824 4823 0
4825 2185 4824 0
4826 4827 1129 0
4828 4827 4826 0
4828 2186 4827 0
4828 4829 2186 0
4830 4829 4828 0
4830 2187 4829 0
4830 4831 2187 0
4832 4831 4830 0
4832 2188 4831 0
4833 4834 1131 0
4835 4834 4833 0
4835 2189 4834 0
4835 4836 2189 0
4837 4836 4835 0
4837 2190 4836 0
4838 4839 1864 0
4840 4839 4838 0
4840 2191 4839 0
4841 4842 1134 0
4843 4842 4841 0
4843 2192 4842 0
4843 4844 2192 0
4845 4844 4843 0
4845 2193 4844 0
4846 4847 1617 0
4848 4847 4846 0
4848 2194 4847 0
4849 4850 1137 0
4851 4850 4849 0
4851 2195 4850 0
4851 4852 2195 0
4853 4852 4851 0
4853 2196 4852 0
4853 4854 2196 0
4855 4854 4853 0
4855 2197 4854 0
4856 4857 1139 0
4858 4857 4856 0
4858 2198 4857 0
4858 4859 2198 0
4860 4859 4858 0
4860 2199 4859 0
4860 4861 2199 0
4862 4861 4860 0
4862 2200 4861 0
4863 4864 1141 0
4865 4864 4863 0
4865 2201 4864 0
4865 4866 2201 0
4867 4866 4865 0
4867 2202 4866 0
4868 4869 1621 0
4870 4869 4868 0
4870 2203 4869 0
4871 4872 1144 0
4873 4872 4871 0
4873 2204 4872 0
4873 4874 2204 0
4875 4874 4873 0
4875 2205 4874 0
4875 4876 2205 0
4877 4876 4875 0
4877 2206 4876 0
4878 4879 1146 0
4880 4879 4878 0
4880 2207 4879 0
4880 4881 2207 0
4747 4881 4880 0
4747 2152 4881 0
4882 4883 2013 0
4884 4883 4882 0
4884 2208 4883 0
4885 4886 1148 0
4887 4886 4885 0
4887 2209 4886 0
4887 4888 2209 0
4889 4888 4887 0
4889 2210 4888 0
4890 4891 1625 0
4892 4891 4890 0
4892 2211 4891 0
4893 4894 1151 0
4895 4894 4893 0
4895 2212 4894 0
4895 4896 2212 0
4897 4896 4895 0
4897 2213 4896 0
4897 4898 2213 0
4899 4898 4897 0
4899 2214 4898 0
4900 4901 1153 0
4902 4901 4900 0
4902 2215 4901 0
4902 4903 2215 0
4904 4903 4902 0
4904 2216 4903 0
4905 4906 1874 0
4907 4906 4905 0
4907 2217 4906 0
4908 4909 1156 0
4910 4909 4908 0
4910 2218 4909 0
4910 4911 2218 0
4912 4911 4910 0
4912 2219 4911 0
4913 4914 1630 0
4915 4914 4913 0
4915 2220 4914 0
4916 4917 1159 0
4918 4917 4916 0
4918 2221 4917 0
4918 4919 2221 0
4920 4919 4918 0
4920 2222 4919 0
4920 4921 2222 0
4922 4921 4920 0
4922 2223 4921 0
4923 4924 1161 0
4925 4924 4923 0
4925 2224 4924 0
4925 4926 2224 0
4927 4926 4925 0
4927 2225 4926 0
4927 4928 2225 0
4929 4928 4927 0
4929 2226 4928 0
4930 4931 1163 0
4932 4931 4930 0
4932 2227 4931 0
4932 4933 2227 0
4934 4933 4932 0
4934 2228 4933 0
4935 4936 1634 0
4937 4936 4935 0
4937 2229 4936 0
4938 4939 1166 0
4940 4939 4938 0
4940 2230 4939 0
4940 4941 2230 0
4942 4941 4940 0
4942 2231 4941 0
4942 4943 2231 0
4944 4943 4942 0
4944 2232 4943 0
4945 4946 1168 0
4947 4946 4945 0
4947 2233 4946 0
4947 4948 2233 0
4815 4948 4947 0
4815 2180 4948 0
4949 4950 2235 0
4951 4950 4949 0
4951 2237 4950 0
4952 4953 1170 0
4954 4953 4952 0
4954 2238 4953 0
4954 4955 2238 0
4956 4955 4954 0
4956 2239 4955 0
4957 4958 1638 0
4959 4958 4957 0
4959 2240 4958 0
4960 4961 1173 0
4962 4961 4960 0
4962 2241 4961 0
4962 4963 2241 0
4964 4963 4962 0
4964 2242 4963 0
4964 4965 2242 0
4966 4965 4964 0
4966 2243 4965 0
4967 4968 1175 0
4969 4968 4967 0
4969 2244 4968 0
4969 4970 2244 0
4971 4970 4969 0
4971 2245 4970 0
4972 4973 1884 0
4974 4973 4972 0
4974 2246 4973 0
4975 4976 1178 0
4977 4976 4975 0
4977 2247 4976 0
4977 4978 2247 0
4979 4978 4977 0
4979 2248 4978 0
4980 4981 1643 0
4982 4981 4980 0
4982 2249 4981 0
4983 4984 1181 0
4985 4984 4983 0
4985 2250 4984 0
4985 4986 2250 0
4987 4986 4985 0
4987 2251 4986 0
4987 4988 2251 0
4989 4988 4987 0
4989 2252 4988 0
4990 4991 1183 0
4992 4991 4990 0
4992 2253 4991 0
4992 4993 2253 0
4994 4993 4992 0
4994 2254 4993 0
4994 4995 2254 0
4996 4995 4994 0
4996 2255 4995 0
4997 4998 1185 0
4999 4998 4997 0
4999 2256 4998 0
4999 5000 2256 0
5001 5000 4999 0
5001 2257 5000 0
5002 5003 1647 0
5004 5003 5002 0
5004 2258 5003 0
5005 5006 1188 0
5007 5006 5005 0
5007 2259 5006 0
5007 5008 2259 0
5009 5008 5007 0
5009 2260 5008 0
5009 5010 2260 0
5011 5010 5009 0
5011 2261 5010 0
5012 5013 1190 0
5014 5013 5012 0
5014 2262 5013 0
5014 5015 2262 0
5016 5015 5014 0
5016 2234 5015 0
5017 5018 2042 0
5019 5018 5017 0
5019 2263 5018 0
5020 5021 1193 0
5022 5021 5020 0
5022 2264 5021 0
5022 5023 2264 0
5024 5023 5022 0
5024 2265 5023 0
5025 5026 1652 0
5027 5026 5025 0
5027 2266 5026 0
5028 5029 1196 0
5030 5029 5028 0
5030 2267 5029 0
5030 5031 2267 0
5032 5031 5030 0
5032 2268 5031 0
5032 5033 2268 0
5034 5033 5032 0
5034 2269 5033 0
5035 5036 1198 0
5037 5036 5035 0
5037 2270 5036 0
5037 5038 2270 0
5039 5038 5037 0
5039 2271 5038 0
5040 5041 1895 0
5042 5041 5040 0
5042 2272 5041 0
5043 5044 1201 0
5045 5044 5043 0
5045 2273 5044 0
5045 5046 2273 0
5047 5046 5045 0
5047 2274 5046 0
5048 5049 1657 0
5050 5049 5048 0
5050 2275 5049 0
5051 5052 1204 0
5053 5052 5051 0
5053 2276 5052 0
5053 5054 2276 0
5055 5054 5053 0
5055 2277 5054 0
5055 5056 2277 0
5057 5056 5055 0
5057 2278 5056 0
5058 5059 1206 0
5060 5059 5058 0
5060 2279 5059 0
5060 5061 2279 0
5062 5061 5060 0
5062 2280 5061 0
5062 5063 2280 0
5064 5063 5062 0
5064 2281 5063 0
5065 5066 1208 0
5067 5066 5065 0
5067 2282 5066 0
5067 5068 2282 0
5069 5068 5067 0
5069 2283 5068 0
5070 5071 1661 0
5072 5071 5070 0
5072 2284 5071 0
5073 5074 1211 0
5075 5074 5073 0
5075 2285 5074 0
5075 5076 2285 0
5077 5076 5075 0
5077 2286 5076 0
5077 5078 2286 0
5079 5078 5077 0
5079 2287 5078 0
5080 5081 1213 0
5082 5081 5080 0
5082 2288 5081 0
5082 5083 2288 0
4949 5083 5082 0
4949 2235 5083 0
5084 5085 2290 0
5086 5085 5084 0
5086 2292 5085 0
5087 5088 1215 0
5089 5088 5087 0
5089 2293 5088 0
5089 5090 2293 0
5091 5090 5089 0
5091 2294 5090 0
5092 5093 1665 0
5094 5093 5092 0
5094 2295 5093 0
5095 5096 1218 0
5097 5096 5095 0
5097 2296 5096 0
5097 5098 2296 0
5099 5098 5097 0
5099 2297 5098 0
5099 5100 2297 0
5101 5100 5099 0
5101 2298 5100 0
5102 5103 1220 0
5104 5103 5102 0
5104 2299 5103 0
5104 5105 2299 0
5106 5105 5104 0
5106 2300 5105 0
5107 5108 1905 0
5109 5108 5107 0
5109 2301 5108 0
5110 5111 1223 0
5112 5111 5110 0
5112 2302 5111 0
5112 5113 2302 0
5114 5113 5112 0
5114 2303 5113 0
5115 5116 1670 0
5117 5116 5115 0
5117 2304 5116 0
5118 5119 1226 0
5120 5119 5118 0
5120 2305 5119 0
5120 5121 2305 0
5122 5121 5120 0
5122 2306 5121 0
5122 5123 2306 0
5124 5123 5122 0
5124 2307 5123 0
5125 5126 1228 0
5127 5126 5125 0
5127 2308 5126 0
5127 5128 2308 0
5129 5128 5127 0
5129 2309 5128 0
5129 5130 2309 0
5131 5130 5129 0
5131 2310 5130 0
5132 5133 1230 0
5134 5133 5132 0
5134 2311 5133 0
5134 5135 2311 0
5136 5135 5134 0
5136 2312 5135 0
5137 5138 1674 0
5139 5138 5137 0
5139 2313 5138 0
5140 5141 1233 0
5142 5141 5140 0
5142 2314 5141 0
5142 5143 2314 0
5144 5143 5142 0
5144 2315 5143 0
5144 5145 2315 0
5146 5145 5144 0
5146 2316 5145 0
5147 5148 1235 0
5149 5148 5147 0
5149 2317 5148 0
5149 5150 2317 0
5151 5150 5149 0
5151 2289 5150 0
5152 5153 2070 0
5154 5153 5152 0
5154 2318 5153 0
5155 5156 1238 0
5157 5156 5155 0
5157 2319 5156 0
5157 5158 2319 0
5159 5158 5157 0
5159 2320 5158 0
5160 5161 1679 0
5162 5161 5160 0
5162 2321 5161 0
5163 5164 1241 0
5165 5164 5163 0
5165 2322 5164 0
5165 5166 2322 0
5167 5166 5165 0
5167 2323 5166 0
5167 5168 2323 0
5169 5168 5167 0
5169 2324 5168 0
5170 5171 1243 0
5172 5171 5170 0
5172 2325 5171 0
5172 5173 2325 0
5174 5173 5172 0
5174 2326 5173 0
5175 5176 1916 0
5177 5176 5175 0
5177 2327 5176 0
5178 5179 1246 0
5180 5179 5178 0
5180 2328 5179 0
5180 5181 2328 0
5182 5181 5180 0
5182 2329 5181 0
5183 5184 1684 0
5185 5184 5183 0
5185 2330 5184 0
5186 5187 1249 0
5188 5187 5186 0
5188 2331 5187 0
5188 5189 2331 0
5190 5189 5188 0
5190 2332 5189 0
5190 5191 2332 0
5192 5191 5190 0
5192 2333 5191 0
5193 5194 1251 0
5195 5194 5193 0
5195 2334 5194 0
5195 5196 2334 0
5197 5196 5195 0
5197 2335 5196 0
5197 5198 2335 0
5199 5198 5197 0
5199 2336 5198 0
5200 5201 1253 0
5202 5201 5200 0
5202 2337 5201 0
5202 5203 2337 0
5204 5203 5202 0
5204 2338 5203 0
5205 5206 1688 0
5207 5206 5205 0
5207 2339 5206 0
5208 5209 1256 0
5210 5209 5208 0
5210 2340 5209 0
5210 5211 2340 0
5212 5211 5210 0
5212 2341 5211 0
5212 5213 2341 0
5214 5213 5212 0
5214 2342 5213 0
5215 5216 1258 0
5217 5216 5215 0
5217 2343 5216 0
5217 5218 2343 0
5084 5218 5217 0
5084 2290 5218 0
5219 5220 2345 0
5221 5220 5219 0
5221 2347 5220 0
5222 5223 1260 0
5224 5223 5222 0
5224 2348 5223 0
5224 5225 2348 0
5226 5225 5224 0
5226 2349 5225 0
5227 5228 1692 0
5229 5228 5227 0
5229 2350 5228 0
5230 5231 1263 0
5232 5231 5230 0
5232 2351 5231 0
5232 5233 2351 0
5234 5233 5232 0
5234 2352 5233 0
5234 5235 2352 0
5236 5235 5234 0
5236 2353 5235 0
5237 5238 1265 0
5239 5238 5237 0
5239 2354 5238 0
5239 5240 2354 0
5241 5240 5239 0
5241 2355 5240 0
5242 5243 1926 0
5244 5243 5242 0
5244 2356 5243 0
5245 5246 1268 0
5247 5246 5245 0
5247 2357 5246 0
5247 5248 2357 0
5249 5248 5247 0
5249 2358 5248 0
5250 5251 1697 0
5252 5251 5250 0
5252 2359 5251 0
5253 5254 1271 0
5255 5254 5253 0
5255 2360 5254 0
5255 5256 2360 0
5257 5256 5255 0
5257 2361 5256 0
5257 5258 2361 0
5259 5258 5257 0
5259 2362 5258 0
5260 5261 1273 0
5262 5261 5260 0
5262 2363 5261 0
5262 5263 2363 0
5264 5263 5262 0
5264 2364 5263 0
5264 5265 2364 0
5266 5265 5264 0
5266 2365 5265 0
5267 5268 1275 0
5269 5268 5267 0
5269 2366 5268 0
5269 5270 2366 0
5271 5270 5269 0
5271 2367 5270 0
5272 5273 1701 0
5274 5273 5272 0
5274 2368 5273 0
5275 5276 1278 0
5277 5276 5275 0
5277 2369 5276 0
5277 5278 2369 0
5279 5278 5277 0
5279 2370 5278 0
5279 5280 2370 0
5281 5280 5279 0
5281 2371 5280 0
5282 5283 1280 0
5284 5283 5282 0
5284 2372 5283 0
5284 5285 2372 0
5286 5285 5284 0
5286 2344 5285 0
5287 5288 2098 0
5289 5288 5287 0
5289 2373 5288 0
5290 5291 1283 0
5292 5291 5290 0
5292 2374 5291 0
5292 5293 2374 0
5294 5293 5292 0
5294 2375 5293 0
5295 5296 1706 0
5297 5296 5295 0
5297 2376 5296 0
5298 5299 1286 0
5300 5299 5298 0
5300 2377 5299 0
5300 5301 2377 0
5302 5301 5300 0
5302 2378 5301 0
5302 5303 2378 0
5304 5303 5302 0
5304 2379 5303 0
5305 5306 1288 0
5307 5306 5305 0
5307 2380 5306 0
5307 5308 2380 0
5309 5308 5307 0
5309 2381 5308 0
5310 5311 1937 0
5312 5311 5310 0
5312 2382 5311 0
5313 5314 1291 0
5315 5314 5313 0
5315 2383 5314 0
5315 5316 2383 0
5317 5316 5315 0
5317 2384 5316 0
5318 5319 1711 0
5320 5319 5318 0
5320 2385 5319 0
5321 5322 1294 0
5323 5322 5321 0
5323 2386 5322 0
5323 5324 2386 0
5325 5324 5323 0
5325 2387 5324 0
5325 5326 2387 0
5327 5326 5325 0
5327 2388 5326 0
5328 5329 1296 0
5330 5329 5328 0
5330 2389 5329 0
5330 5331 2389 0
5332 5331 5330 0
5332 2390 5331 0
5332 5333 2390 0
5334 5333 5332 0
5334 2391 5333 0
5335 5336 1298 0
5337 5336 5335 0
5337 2392 5336 0
5337 5338 2392 0
5339 5338 5337 0
5339 2393 5338 0
5340 5341 1715 0
5342 5341 5340 0
5342 2394 5341 0
5343 5344 1301 0
5345 5344 5343 0
5345 2395 5344 0
5345 5346 2395 0
5347 5346 5345 0
5347 2396 5346 0
5347 5348 2396 0
5349 5348 5347 0
5349 2397 5348 0
5350 5351 1303 0
5352 5351 5350 0
5352 2398 5351 0
5352 5353 2398 0
5219 5353 5352 0
5219 2345 5353 0
5354 5355 2153 0
5356 5355 5354 0
5356 2401 5355 0
5357 5358 1305 0
5359 5358 5357 0
5359 2402 5358 0
5359 5360 2402 0
5361 5360 5359 0
5361 2403 5360 0
5362 5363 1719 0
5364 5363 5362 0
5364 2404 5363 0
5365 5366 1308 0
5367 5366 5365 0
5367 2405 5366 0
5367 5368 2405 0
5369 5368 5367 0
5369 2406 5368 0
5369 5370 2406 0
5371 5370 5369 0
5371 2407 5370 0
5372 5373 1310 0
5374 5373 5372 0
5374 2408 5373 0
5374 5375 2408 0
5376 5375 5374 0
5376 2409 5375 0
5377 5378 1947 0
5379 5378 5377 0
5379 2410 5378 0
5380 5381 1313 0
5382 5381 5380 0
5382 2411 5381 0
5382 5383 2411 0
5384 5383 5382 0
5384 2412 5383 0
5385 5386 1724 0
5387 5386 5385 0
5387 2413 5386 0
5388 5389 1316 0
5390 5389 5388 0
5390 2414 5389 0
5390 5391 2414 0
5392 5391 5390 0
5392 2415 5391 0
5392 5393 2415 0
5394 5393 5392 0
5394 2416 5393 0
5395 5396 1318 0
5397 5396 5395 0
5397 2417 5396 0
5397 5398 2417 0
5399 5398 5397 0
5399 2418 5398 0
5399 5400 2418 0
5401 5400 5399 0
5401 2419 5400 0
5402 5403 1320 0
5404 5403 5402 0
5404 2420 5403 0
5404 5405 2420 0
5406 5405 5404 0
5406 2421 5405 0
5407 5408 1728 0
5409 5408 5407 0
5409 2422 5408 0
5410 5411 1323 0
5412 5411 5410 0
5412 2423 5411 0
5412 5413 2423 0
5414 5413 5412 0
5414 2424 5413 0
5414 5415 2424 0
5416 5415 5414 0
5416 2425 5415 0
5417 5418 1325 0
5419 5418 5417 0
5419 2426 5418 0
5419 5420 2426 0
5421 5420 5419 0
5421 2399 5420 0
5422 5423 2181 0
5424 5423 5422 0
5424 2427 5423 0
5425 5426 1328 0
5427 5426 5425 0
5427 2428 5426 0
5427 5428 2428 0
5429 5428 5427 0
5429 2429 5428 0
5430 5431 1733 0
5432 5431 5430 0
5432 2430 5431 0
5433 5434 1331 0
5435 5434 5433 0
5435 2431 5434 0
5435 5436 2431 0
5437 5436 5435 0
5437 2432 5436 0
5437 5438 2432 0
5439 5438 5437 0
5439 2433 5438 0
5440 5441 1333 0
5442 5441 5440 0
5442 2434 5441 0
5442 5443 2434 0
5444 5443 5442 0
5444 2435 5443 0
5445 5446 1958 0
5447 5446 5445 0
5447 2436 5446 0
5448 5449 1336 0
5450 5449 5448 0
5450 2437 5449 0
5450 5451 2437 0
5452 5451 5450 0
5452 2438 5451 0
5453 5454 1738 0
5455 5454 5453 0
5455 2439 5454 0
5456 5457 1339 0
5458 5457 5456 0
5458 2440 5457 0
5458 5459 2440 0
5460 5459 5458 0
5460 2441 5459 0
5460 5461 2441 0
5462 5461 5460 0
5462 2442 5461 0
5463 5464 1341 0
5465 5464 5463 0
5465 2443 5464 0
5465 5466 2443 0
5467 5466 5465 0
5467 2444 5466 0
5467 5468 2444 0
5469 5468 5467 0
5469 2445 5468 0
5470 5471 1343 0
5472 5471 5470 0
5472 2446 5471 0
5472 5473 2446 0
5474 5473 5472 0
5474 2447 5473 0
5475 5476 1742 0
5477 5476 5475 0
5477 2448 5476 0
5478 5479 1346 0
5480 5479 5478 0
5480 2449 5479 0
5480 5481 2449 0
5482 5481 5480 0
5482 2450 5481 0
5482 5483 2450 0
5484 5483 5482 0
5484 2451 5483 0
5485 5486 1348 0
5487 5486 5485 0
5487 2452 5486 0
5487 5488 2452 0
5489 5488 5487 0
5489 2454 5488 0
5490 5491 2236 0
5492 5491 5490 0
5492 2455 5491 0
5493 5494 1351 0
5495 5494 5493 0
5495 2456 5494 0
5495 5496 2456 0
5497 5496 5495 0
5497 2457 5496 0
5498 5499 1747 0
5500 5499 5498 0
5500 2458 5499 0
5501 5502 1354 0
5503 5502 5501 0
5503 2459 5502 0
5503 5504 2459 0
5505 5504 5503 0
5505 2460 5504 0
5505 5506 2460 0
5507 5506 5505 0
5507 2461 5506 0
5508 5509 1356 0
5510 5509 5508 0
5510 2462 5509 0
5510 5511 2462 0
5512 5511 5510 0
5512 2463 5511 0
5513 5514 1969 0
5515 5514 5513 0
5515 2464 5514 0
5516 5517 1359 0
5518 5517 5516 0
5518 2465 5517 0
5518 5519 2465 0
5520 5519 5518 0
5520 2466 5519 0
5521 5522 1752 0
5523 5522 5521 0
5523 2467 5522 0
5524 5525 1362 0
5526 5525 5524 0
5526 2468 5525 0
5526 5527 2468 0
5528 5527 5526 0
5528 2469 5527 0
5528 5529 2469 0
5530 5529 5528 0
5530 2470 5529 0
5531 5532 1364 0
5533 5532 5531 0
5533 2471 5532 0
5533 5534 2471 0
5535 5534 5533 0
5535 2472 5534 0
5535 5536 2472 0
5537 5536 5535 0
5537 2473 5536 0
5538 5539 1366 0
5540 5539 5538 0
5540 2474 5539 0
5540 5541 2474 0
5542 5541 5540 0
5542 2475 5541 0
5543 5544 1756 0
5545 5544 5543 0
5545 2476 5544 0
5546 5547 1369 0
5548 5547 5546 0
5548 2477 5547 0
5548 5549 2477 0
5550 5549 5548 0
5550 2478 5549 0
5550 5551 2478 0
5552 5551 5550 0
5552 2479 5551 0
5553 5554 1371 0
5555 5554 5553 0
5555 2480 5554 0
5555 5556 2480 0
5557 5556 5555 0
5557 2453 5556 0
5558 5559 2291 0
5560 5559 5558 0
5560 2482 5559 0
5561 5562 1374 0
5563 5562 5561 0
5563 2483 5562 0
5563 5564 2483 0
5565 5564 5563 0
5565 2484 5564 0
5566 5567 1761 0
5568 5567 5566 0
5568 2485 5567 0
5569 5570 1377 0
5571 5570 5569 0
5571 2486 5570 0
5571 5572 2486 0
5573 5572 5571 0
5573 2487 5572 0
5573 5574 2487 0
5575 5574 5573 0
5575 2488 5574 0
5576 5577 1379 0
5578 5577 5576 0
5578 2489 5577 0
5578 5579 2489 0
5580 5579 5578 0
5580 2490 5579 0
5581 5582 1980 0
5583 5582 5581 0
5583 2491 5582 0
5584 5585 1382 0
5586 5585 5584 0
5586 2492 5585 0
5586 5587 2492 0
5588 5587 5586 0
5588 2493 5587 0
5589 5590 1766 0
5591 5590 5589 0
5591 2494 5590 0
5592 5593 1385 0
5594 5593 5592 0
5594 2495 5593 0
5594 5595 2495 0
5596 5595 5594 0
5596 2496 5595 0
5596 5597 2496 0
5598 5597 5596 0
5598 2497 5597 0
5599 5600 1387 0
5601 5600 5599 0
5601 2498 5600 0
5601 5602 2498 0
5603 5602 5601 0
5603 2499 5602 0
5603 5604 2499 0
5605 5604 5603 0
5605 2500 5604 0
5606 5607 1389 0
5608 5607 5606 0
5608 2501 5607 0
5608 5609 2501 0
5610 5609 5608 0
5610 2502 5609 0
5611 5612 1770 0
5613 5612 5611 0
5613 2503 5612 0
5614 5615 1392 0
5616 5615 5614 0
5616 2504 5615 0
5616 5617 2504 0
5618 5617 5616 0
5618 2505 5617 0
5618 5619 2505 0
5620 5619 5618 0
5620 2506 5619 0
5621 5622 1394 0
5623 5622 5621 0
5623 2507 5622 0
5623 5624 2507 0
5625 5624 5623 0
5625 2481 5624 0
5626 5627 2346 0
5628 5627 5626 0
5628 2509 5627 0
5629 5630 1397 0
5631 5630 5629 0
5631 2510 5630 0
5631 5632 2510 0
5633 5632 5631 0
5633 2511 5632 0
5634 5635 1775 0
5636 5635 5634 0
5636 2512 5635 0
5637 5638 1400 0
5639 5638 5637 0
5639 2513 5638 0
5639 5640 2513 0
5641 5640 5639 0
5641 2514 5640 0
5641 5642 2514 0
5643 5642 5641 0
5643 2515 5642 0
5644 5645 1402 0
5646 5645 5644 0
5646 2516 5645 0
5646 5647 2516 0
5648 5647 5646 0
5648 2517 5647 0
5649 5650 1991 0
5651 5650 5649 0
5651 2518 5650 0
5652 5653 1405 0
5654 5653 5652 0
5654 2519 5653 0
5654 5655 2519 0
5656 5655 5654 0
5656 2520 5655 0
5657 5658 1780 0
5659 5658 5657 0
5659 2521 5658 0
5660 5661 1408 0
5662 5661 5660 0
5662 2522 5661 0
5662 5663 2522 0
5664 5663 5662 0
5664 2523 5663 0
5664 5665 2523 0
5666 5665 5664 0
5666 2524 5665 0
5667 5668 1410 0
5669 5668 5667 0
5669 2525 5668 0
5669 5670 2525 0
5671 5670 5669 0
5671 2526 5670 0
5671 5672 2526 0
5673 5672 5671 0
5673 2527 5672 0
5674 5675 1412 0
5676 5675 5674 0
5676 2528 5675 0
5676 5677 2528 0
5678 5677 5676 0
5678 2529 5677 0
5679 5680 1784 0
5681 5680 5679 0
5681 2530 5680 0
5682 5683 1415 0
5684 5683 5682 0
5684 2531 5683 0
5684 5685 2531 0
5686 5685 5684 0
5686 2532 5685 0
5686 5687 2532 0
5688 5687 5686 0
5688 2533 5687 0
5689 5690 1417 0
5691 5690 5689 0
5691 2534 5690 0
5691 5692 2534 0
5693 5692 5691 0
5693 2508 5692 0
5694 5695 2400 0
5696 5695 5694 0
5696 2536 5695 0
5697 5698 1420 0
5699 5698 5697 0
5699 2537 5698 0
5699 5700 2537 0
5701 5700 5699 0
5701 2538 5700 0
5702 5703 1789 0
5704 5703 5702 0
5704 2539 5703 0
5705 5706 1423 0
5707 5706 5705 0
5707 2540 5706 0
5707 5708 2540 0
5709 5708 5707 0
5709 2541 5708 0
5709 5710 2541 0
5711 5710 5709 0
5711 2542 5710 0
5712 5713 1425 0
5714 5713 5712 0
5714 2543 5713 0
5714 5715 2543 0
5716 5715 5714 0
5716 2544 5715 0
5717 5718 2002 0
5719 5718 5717 0
5719 2545 5718 0
5720 5721 1428 0
5722 5721 5720 0
5722 2546 5721 0
5722 5723 2546 0
5724 5723 5722 0
5724 2547 5723 0
5725 5726 1794 0
5727 5726 5725 0
5727 2548 5726 0
5728 5729 1431 0
5730 5729 5728 0
5730 2549 5729 0
5730 5731 2549 0
5732 5731 5730 0
5732 2550 5731 0
5732 5733 2550 0
5734 5733 5732 0
5734 2551 5733 0
5735 5736 1433 0
5737 5736 5735 0
5737 2552 5736 0
5737 5738 2552 0
5739 5738 5737 0
5739 2553 5738 0
5739 5740 2553 0
5741 5740 5739 0
5741 2554 5740 0
5742 5743 1435 0
5744 5743 5742 0
5744 2555 5743 0
5744 5745 2555 0
5746 5745 5744 0
5746 2556 5745 0
5747 5748 1798 0
5749 5748 5747 0
5749 2557 5748 0
5750 5751 1438 0
5752 5751 5750 0
5752 2558 5751 0
5752 5753 2558 0
5754 5753 5752 0
5754 2559 5753 0
5754 5755 2559 0
5756 5755 5754 0
5756 2560 5755 0
5757 5758 1440 0
5759 5758 5757 0
5759 2561 5758 0
5759 5760 2561 0
5761 5760 5759 0
5761 2535 5760 0
5762 5763 162 0
5764 5763 5762 0
5764 643 5763 0
2563 5764 642 0
5765 5764 2563 0
5765 643 5764 0
5765 3365 643 0
5766 3365 5765 0
5766 164 3365 0
5767 5768 165 0
5769 5768 5767 0
5769 646 5768 0
2566 5769 645 0
5770 5769 2566 0
5770 646 5769 0
5770 3373 646 0
5762 3373 5770 0
5762 162 3373 0
5771 5772 167 0
5773 5772 5771 0
5773 648 5772 0
2568 5773 647 0
5774 5773 2568 0
5774 648 5773 0
5774 3380 648 0
5767 3380 5774 0
5767 165 3380 0
5775 5776 169 0
5777 5776 5775 0
5777 650 5776 0
2570 5777 649 0
5778 5777 2570 0
5778 650 5777 0
5778 3387 650 0
5771 3387 5778 0
5771 167 3387 0
5766 5779 164 0
5780 5779 5766 0
5780 651 5779 0
2571 5780 644 0
5781 5780 2571 0
5781 651 5780 0
5781 3393 651 0
5775 3393 5781 0
5775 169 3393 0
5782 5783 172 0
5784 5783 5782 0
5784 653 5783 0
2573 5784 652 0
5785 5784 2573 0
5785 653 5784 0
5785 3400 653 0
5786 3400 5785 0
5786 174 3400 0
5787 5788 175 0
5789 5788 5787 0
5789 656 5788 0
2576 5789 655 0
5790 5789 2576 0
5790 656 5789 0
5790 3408 656 0
5782 3408 5790 0
5782 172 3408 0
5791 5792 177 0
5793 5792 5791 0
5793 658 5792 0
2578 5793 657 0
5794 5793 2578 0
5794 658 5793 0
5794 3415 658 0
5787 3415 5794 0
5787 175 3415 0
5795 5796 179 0
5797 5796 5795 0
5797 660 5796 0
2580 5797 659 0
5798 5797 2580 0
5798 660 5797 0
5798 3422 660 0
5799 3422 5798 0
5799 181 3422 0
5800 5801 182 0
5802 5801 5800 0
5802 663 5801 0
2583 5802 662 0
5803 5802 2583 0
5803 663 5802 0
5803 3430 663 0
5795 3430 5803 0
5795 179 3430 0
5804 5805 184 0
5806 5805 5804 0
5806 665 5805 0
2585 5806 664 0
5807 5806 2585 0
5807 665 5806 0
5807 3437 665 0
5808 3437 5807 0
5808 186 3437 0
5809 5810 187 0
5811 5810 5809 0
5811 668 5810 0
2588 5811 667 0
5812 5811 2588 0
5812 668 5811 0
5812 3445 668 0
5804 3445 5812 0
5804 184 3445 0
5813 5814 189 0
5815 5814 5813 0
5815 670 5814 0
2590 5815 669 0
5816 5815 2590 0
5816 670 5815 0
5816 3452 670 0
5817 3452 5816 0
5817 191 3452 0
5818 5819 192 0
5820 5819 5818 0
5820 673 5819 0
2593 5820 672 0
5821 5820 2593 0
5821 673 5820 0
5821 3460 673 0
5813 3460 5821 0
5813 189 3460 0
5822 5823 194 0
5824 5823 5822 0
5824 675 5823 0
2595 5824 674 0
5825 5824 2595 0
5825 675 5824 0
5825 3467 675 0
5826 3467 5825 0
5826 196 3467 0
5827 5828 197 0
5829 5828 5827 0
5829 678 5828 0
2598 5829 677 0
5830 5829 2598 0
5830 678 5829 0
5830 3475 678 0
5831 3475 5830 0
5831 199 3475 0
5832 5833 200 0
5834 5833 5832 0
5834 681 5833 0
2601 5834 680 0
5835 5834 2601 0
5835 681 5834 0
5835 3483 681 0
5836 3483 5835 0
5836 202 3483 0
5837 5838 203 0
5839 5838 5837 0
5839 684 5838 0
2604 5839 683 0
5840 5839 2604 0
5840 684 5839 0
5840 3491 684 0
5841 3491 5840 0
5841 205 3491 0
5842 5843 206 0
5844 5843 5842 0
5844 687 5843 0
2607 5844 686 0
5845 5844 2607 0
5845 687 5844 0
5845 3499 687 0
5846 3499 5845 0
5846 208 3499 0
5847 5848 209 0
5849 5848 5847 0
5849 690 5848 0
2610 5849 689 0
5850 5849 2610 0
5850 690 5849 0
5850 3507 690 0
5851 3507 5850 0
5851 211 3507 0
5852 5853 212 0
5854 5853 5852 0
5854 693 5853 0
2613 5854 692 0
5855 5854 2613 0
5855 693 5854 0
5855 3515 693 0
5856 3515 5855 0
5856 214 3515 0
5857 5858 215 0
5859 5858 5857 0
5859 696 5858 0
2616 5859 695 0
5860 5859 2616 0
5860 696 5859 0
5860 3523 696 0
5861 3523 5860 0
5861 217 3523 0
5861 5862 217 0
5863 5862 5861 0
5863 698 5862 0
2618 5863 697 0
5864 5863 2618 0
5864 698 5863 0
5864 3530 698 0
5865 3530 5864 0
5865 219 3530 0
